# .PCD v0.7 - Point Cloud Data file format
VERSION 0.7
FIELDS x y z
SIZE 4 4 4
TYPE F F F
COUNT 1 1 1
WIDTH 1886
HEIGHT 1
VIEWPOINT 0 0 0 1 0 0 0
POINTS 1886
DATA ascii
5.5999999 5.0500002 2.7
5.5999999 5.0500002 2.8
5.5999999 5.0500002 2.9000001
5.5999999 5.0500002 3
5.5999999 5.0500002 3.0999999
5.5999999 5.0500002 3.2
5.5999999 5.0500002 3.3
5.5999999 5.0500002 3.4000001
5.5999999 5.1500001 -0.5
5.5999999 5.1500001 -0.40000001
5.5999999 5.1500001 -0.30000001
5.5999999 5.1500001 -0.2
5.5999999 5.1500001 -0.1
5.5999999 5.1500001 -2.7755576e-17
5.5999999 5.1500001 0.1
5.5999999 5.1500001 0.2
5.5999999 5.1500001 0.30000001
5.5999999 5.1500001 0.40000001
5.5999999 5.1500001 0.5
5.5999999 5.1500001 0.60000002
5.5999999 5.1500001 0.69999999
5.5999999 5.1500001 0.80000001
5.5999999 5.1500001 0.89999998
5.5999999 5.1500001 1
5.5999999 5.1500001 1.1
5.5999999 5.1500001 1.2
5.5999999 5.1500001 1.3
5.5999999 5.1500001 1.4
5.5999999 5.1500001 1.5
5.5999999 5.1500001 1.6
5.5999999 5.1500001 1.7
5.5999999 5.1500001 1.8
5.5999999 5.1500001 1.9
5.5999999 5.1500001 2
5.5999999 5.1500001 2.0999999
5.5999999 5.1500001 2.2
5.5999999 5.1500001 2.3
5.5999999 5.1500001 2.4000001
5.5999999 5.1500001 2.5
5.5999999 5.1500001 2.5999999
5.5999999 5.1500001 2.7
5.5999999 5.1500001 2.8
5.5999999 5.1500001 2.9000001
5.5999999 5.1500001 3
5.5999999 5.1500001 3.0999999
5.5999999 5.1500001 3.2
5.5999999 5.1500001 3.3
5.5999999 5.1500001 3.4000001
5.6999998 4.8499999 -0.5
5.6999998 4.8499999 -0.40000001
5.6999998 4.8499999 -0.30000001
5.6999998 4.8499999 -0.2
5.6999998 4.8499999 -0.1
5.6999998 4.8499999 -2.7755576e-17
5.6999998 4.8499999 0.1
5.6999998 4.8499999 0.2
5.6999998 4.8499999 0.30000001
5.6999998 4.8499999 0.40000001
5.6999998 4.8499999 0.5
5.6999998 4.8499999 0.60000002
5.6999998 4.8499999 0.69999999
5.6999998 4.8499999 0.80000001
5.6999998 4.8499999 0.89999998
5.6999998 4.8499999 1
5.6999998 4.8499999 1.1
5.6999998 4.8499999 1.2
5.6999998 4.8499999 1.3
5.6999998 4.8499999 1.4
5.6999998 4.8499999 1.5
5.6999998 4.8499999 1.6
5.6999998 4.8499999 1.7
5.6999998 4.8499999 1.8
5.6999998 4.8499999 1.9
5.6999998 4.8499999 2
5.6999998 4.8499999 2.0999999
5.6999998 4.8499999 2.2
5.6999998 4.8499999 2.3
5.6999998 4.8499999 2.4000001
5.6999998 4.8499999 2.5
5.6999998 4.8499999 2.5999999
5.6999998 4.8499999 2.7
5.6999998 4.8499999 2.8
5.6999998 4.8499999 2.9000001
5.6999998 4.8499999 3
5.6999998 4.8499999 3.0999999
5.6999998 4.8499999 3.2
5.6999998 4.8499999 3.3
5.6999998 4.8499999 3.4000001
5.6999998 4.9499998 -0.5
5.6999998 4.9499998 -0.40000001
5.6999998 4.9499998 -0.30000001
5.6999998 4.9499998 -0.2
5.6999998 4.9499998 -0.1
5.6999998 4.9499998 -2.7755576e-17
5.6999998 4.9499998 0.1
5.6999998 4.9499998 0.2
5.6999998 4.9499998 0.30000001
5.6999998 4.9499998 0.40000001
5.6999998 4.9499998 0.5
5.6999998 4.9499998 0.60000002
5.6999998 4.9499998 0.69999999
5.6999998 4.9499998 0.80000001
5.6999998 4.9499998 0.89999998
5.6999998 4.9499998 1
5.6999998 4.9499998 1.1
5.6999998 4.9499998 1.2
5.6999998 4.9499998 1.3
5.6999998 4.9499998 1.4
5.6999998 4.9499998 1.5
5.6999998 4.9499998 1.6
5.6999998 4.9499998 1.7
5.6999998 4.9499998 1.8
5.6999998 4.9499998 1.9
5.6999998 4.9499998 2
5.6999998 4.9499998 2.0999999
5.6999998 4.9499998 2.2
5.6999998 4.9499998 2.3
5.6999998 4.9499998 2.4000001
5.6999998 4.9499998 2.5
5.6999998 4.9499998 2.5999999
5.6999998 4.9499998 2.7
5.6999998 4.9499998 2.8
5.6999998 4.9499998 2.9000001
5.6999998 4.9499998 3
5.6999998 4.9499998 3.0999999
5.6999998 4.9499998 3.2
5.6999998 4.9499998 3.3
5.6999998 4.9499998 3.4000001
5.6999998 5.0500002 -0.5
5.6999998 5.0500002 -0.40000001
5.6999998 5.0500002 -0.30000001
5.6999998 5.0500002 -0.2
5.6999998 5.0500002 -0.1
5.6999998 5.0500002 -2.7755576e-17
5.6999998 5.0500002 0.1
5.6999998 5.0500002 0.2
5.6999998 5.0500002 0.30000001
5.6999998 5.0500002 0.40000001
5.6999998 5.0500002 0.5
5.6999998 5.0500002 0.60000002
5.6999998 5.0500002 0.69999999
5.6999998 5.0500002 0.80000001
5.6999998 5.0500002 0.89999998
5.6999998 5.0500002 1
5.6999998 5.0500002 1.1
5.6999998 5.0500002 1.2
5.6999998 5.0500002 1.3
5.6999998 5.0500002 1.4
5.6999998 5.0500002 1.5
5.6999998 5.0500002 1.6
5.6999998 5.0500002 1.7
5.6999998 5.0500002 1.8
5.6999998 5.0500002 1.9
5.6999998 5.0500002 2
5.6999998 5.0500002 2.0999999
5.6999998 5.0500002 2.2
5.6999998 5.0500002 2.3
5.6999998 5.0500002 2.4000001
5.6999998 5.0500002 2.5
5.6999998 5.0500002 2.5999999
5.6999998 5.0500002 2.7
5.6999998 5.0500002 2.8
5.6999998 5.0500002 2.9000001
5.6999998 5.0500002 3
5.6999998 5.0500002 3.0999999
5.6999998 5.0500002 3.2
5.6999998 5.0500002 3.3
5.6999998 5.0500002 3.4000001
5.6999998 5.1500001 -0.5
5.6999998 5.1500001 -0.40000001
5.6999998 5.1500001 -0.30000001
5.6999998 5.1500001 -0.2
5.6999998 5.1500001 -0.1
5.6999998 5.1500001 -2.7755576e-17
5.6999998 5.1500001 0.1
5.6999998 5.1500001 0.2
5.6999998 5.1500001 0.30000001
5.6999998 5.1500001 0.40000001
5.6999998 5.1500001 0.5
5.6999998 5.1500001 0.60000002
5.6999998 5.1500001 0.69999999
5.6999998 5.1500001 0.80000001
5.6999998 5.1500001 0.89999998
5.6999998 5.1500001 1
5.6999998 5.1500001 1.1
5.6999998 5.1500001 1.2
5.6999998 5.1500001 1.3
5.6999998 5.1500001 1.4
5.6999998 5.1500001 1.5
5.6999998 5.1500001 1.6
5.6999998 5.1500001 1.7
5.6999998 5.1500001 1.8
5.6999998 5.1500001 1.9
5.6999998 5.1500001 2
5.6999998 5.1500001 2.0999999
5.6999998 5.1500001 2.2
5.6999998 5.1500001 2.3
5.6999998 5.1500001 2.4000001
5.6999998 5.1500001 2.5
5.6999998 5.1500001 2.5999999
5.6999998 5.1500001 2.7
5.6999998 5.1500001 2.8
5.6999998 5.1500001 2.9000001
5.6999998 5.1500001 3
5.6999998 5.1500001 3.0999999
5.6999998 5.1500001 3.2
5.6999998 5.1500001 3.3
5.6999998 5.1500001 3.4000001
5.8000002 4.8499999 -0.5
5.8000002 4.8499999 -0.40000001
5.8000002 4.8499999 -0.30000001
5.8000002 4.8499999 -0.2
5.8000002 4.8499999 -0.1
5.8000002 4.8499999 -2.7755576e-17
5.8000002 4.8499999 0.1
5.8000002 4.8499999 0.2
5.8000002 4.8499999 0.30000001
5.8000002 4.8499999 0.40000001
5.8000002 4.8499999 0.5
5.8000002 4.8499999 0.60000002
5.8000002 4.8499999 0.69999999
5.8000002 4.8499999 0.80000001
5.8000002 4.8499999 0.89999998
5.8000002 4.8499999 1
5.8000002 4.8499999 1.1
5.8000002 4.8499999 1.2
5.8000002 4.8499999 1.3
5.8000002 4.8499999 1.4
5.8000002 4.8499999 1.5
5.8000002 4.8499999 1.6
5.8000002 4.8499999 1.7
5.8000002 4.8499999 1.8
5.8000002 4.8499999 1.9
5.8000002 4.8499999 2
5.8000002 4.8499999 2.0999999
5.8000002 4.8499999 2.2
5.8000002 4.8499999 2.3
5.8000002 4.8499999 2.4000001
5.8000002 4.8499999 2.5
5.8000002 4.8499999 2.5999999
5.8000002 4.8499999 2.7
5.8000002 4.8499999 2.8
5.8000002 4.8499999 2.9000001
5.8000002 4.8499999 3
5.8000002 4.8499999 3.0999999
5.8000002 4.8499999 3.2
5.8000002 4.8499999 3.3
5.8000002 4.8499999 3.4000001
5.8000002 4.9499998 -0.5
5.8000002 4.9499998 -0.40000001
5.8000002 4.9499998 -0.30000001
5.8000002 4.9499998 -0.2
5.8000002 4.9499998 -0.1
5.8000002 4.9499998 -2.7755576e-17
5.8000002 4.9499998 0.1
5.8000002 4.9499998 0.2
5.8000002 4.9499998 0.30000001
5.8000002 4.9499998 0.40000001
5.8000002 4.9499998 0.5
5.8000002 4.9499998 0.60000002
5.8000002 4.9499998 0.69999999
5.8000002 4.9499998 0.80000001
5.8000002 4.9499998 0.89999998
5.8000002 4.9499998 1
5.8000002 4.9499998 1.1
5.8000002 4.9499998 1.2
5.8000002 4.9499998 1.3
5.8000002 4.9499998 1.4
5.8000002 4.9499998 1.5
5.8000002 4.9499998 1.6
5.8000002 4.9499998 1.7
5.8000002 4.9499998 1.8
5.8000002 4.9499998 1.9
5.8000002 4.9499998 2
5.8000002 4.9499998 2.0999999
5.8000002 4.9499998 2.2
5.8000002 4.9499998 2.3
5.8000002 4.9499998 2.4000001
5.8000002 4.9499998 2.5
5.8000002 4.9499998 2.5999999
5.8000002 4.9499998 2.7
5.8000002 4.9499998 2.8
5.8000002 4.9499998 2.9000001
5.8000002 4.9499998 3
5.8000002 4.9499998 3.0999999
5.8000002 4.9499998 3.2
5.8000002 4.9499998 3.3
5.8000002 4.9499998 3.4000001
5.8000002 5.0500002 -0.5
5.8000002 5.0500002 -0.40000001
5.8000002 5.0500002 -0.30000001
5.8000002 5.0500002 -0.2
5.8000002 5.0500002 -0.1
5.8000002 5.0500002 -2.7755576e-17
5.8000002 5.0500002 0.1
5.8000002 5.0500002 0.2
5.8000002 5.0500002 0.30000001
5.8000002 5.0500002 0.40000001
5.8000002 5.0500002 0.5
5.8000002 5.0500002 0.60000002
5.8000002 5.0500002 0.69999999
5.8000002 5.0500002 0.80000001
5.8000002 5.0500002 0.89999998
5.8000002 5.0500002 1
5.8000002 5.0500002 1.1
5.8000002 5.0500002 1.2
5.8000002 5.0500002 1.3
5.8000002 5.0500002 1.4
5.8000002 5.0500002 1.5
5.8000002 5.0500002 1.6
5.8000002 5.0500002 1.7
5.8000002 5.0500002 1.8
5.8000002 5.0500002 1.9
5.8000002 5.0500002 2
5.8000002 5.0500002 2.0999999
5.8000002 5.0500002 2.2
5.8000002 5.0500002 2.3
5.8000002 5.0500002 2.4000001
5.8000002 5.0500002 2.5
5.8000002 5.0500002 2.5999999
5.8000002 5.0500002 2.7
5.8000002 5.0500002 2.8
5.8000002 5.0500002 2.9000001
5.8000002 5.0500002 3
5.8000002 5.0500002 3.0999999
5.8000002 5.0500002 3.2
5.8000002 5.0500002 3.3
5.8000002 5.0500002 3.4000001
5.8000002 5.1500001 -0.5
5.8000002 5.1500001 -0.40000001
5.8000002 5.1500001 -0.30000001
5.8000002 5.1500001 -0.2
5.8000002 5.1500001 -0.1
5.8000002 5.1500001 -2.7755576e-17
5.8000002 5.1500001 0.1
5.8000002 5.1500001 0.2
5.8000002 5.1500001 0.30000001
5.8000002 5.1500001 0.40000001
5.8000002 5.1500001 0.5
5.8000002 5.1500001 0.60000002
5.8000002 5.1500001 0.69999999
5.8000002 5.1500001 0.80000001
5.8000002 5.1500001 0.89999998
5.8000002 5.1500001 1
5.8000002 5.1500001 1.1
5.8000002 5.1500001 1.2
5.8000002 5.1500001 1.3
5.8000002 5.1500001 1.4
5.8000002 5.1500001 1.5
5.8000002 5.1500001 1.6
5.8000002 5.1500001 1.7
5.8000002 5.1500001 1.8
5.8000002 5.1500001 1.9
5.8000002 5.1500001 2
5.8000002 5.1500001 2.0999999
5.8000002 5.1500001 2.2
5.8000002 5.1500001 2.3
5.8000002 5.1500001 2.4000001
5.8000002 5.1500001 2.5
5.8000002 5.1500001 2.5999999
5.8000002 5.1500001 2.7
5.8000002 5.1500001 2.8
5.8000002 5.1500001 2.9000001
5.8000002 5.1500001 3
5.8000002 5.1500001 3.0999999
5.8000002 5.1500001 3.2
5.8000002 5.1500001 3.3
5.8000002 5.1500001 3.4000001
5.9000001 4.8499999 -0.5
5.9000001 4.8499999 -0.40000001
5.9000001 4.8499999 -0.30000001
5.9000001 4.8499999 -0.2
5.9000001 4.8499999 -0.1
5.9000001 4.8499999 -2.7755576e-17
5.9000001 4.8499999 0.1
5.9000001 4.8499999 0.2
5.9000001 4.8499999 0.30000001
5.9000001 4.8499999 0.40000001
5.9000001 4.8499999 0.5
5.9000001 4.8499999 0.60000002
5.9000001 4.8499999 0.69999999
5.9000001 4.8499999 0.80000001
5.9000001 4.8499999 0.89999998
5.9000001 4.8499999 1
5.9000001 4.8499999 1.1
5.9000001 4.8499999 1.2
5.9000001 4.8499999 1.3
5.9000001 4.8499999 1.4
5.9000001 4.8499999 1.5
5.9000001 4.8499999 1.6
5.9000001 4.8499999 1.7
5.9000001 4.8499999 1.8
5.9000001 4.8499999 1.9
5.9000001 4.8499999 2
5.9000001 4.8499999 2.0999999
5.9000001 4.8499999 2.2
5.9000001 4.8499999 2.3
5.9000001 4.8499999 2.4000001
5.9000001 4.8499999 2.5
5.9000001 4.8499999 2.5999999
5.9000001 4.8499999 2.7
5.9000001 4.8499999 2.8
5.9000001 4.8499999 2.9000001
5.9000001 4.8499999 3
5.9000001 4.8499999 3.0999999
5.9000001 4.8499999 3.2
5.9000001 4.8499999 3.3
5.9000001 4.8499999 3.4000001
5.9000001 4.9499998 -0.5
5.9000001 4.9499998 -0.40000001
5.9000001 4.9499998 -0.30000001
5.9000001 4.9499998 -0.2
5.9000001 4.9499998 -0.1
5.9000001 4.9499998 -2.7755576e-17
5.9000001 4.9499998 0.1
5.9000001 4.9499998 0.2
5.9000001 4.9499998 0.30000001
5.9000001 4.9499998 0.40000001
5.9000001 4.9499998 0.5
5.9000001 4.9499998 0.60000002
5.9000001 4.9499998 0.69999999
5.9000001 4.9499998 0.80000001
5.9000001 4.9499998 0.89999998
5.9000001 4.9499998 1
5.9000001 4.9499998 1.1
5.9000001 4.9499998 1.2
5.9000001 4.9499998 1.3
5.9000001 4.9499998 1.4
5.9000001 4.9499998 1.5
5.9000001 4.9499998 1.6
5.9000001 4.9499998 1.7
5.9000001 4.9499998 1.8
5.9000001 4.9499998 1.9
5.9000001 4.9499998 2
5.9000001 4.9499998 2.0999999
5.9000001 4.9499998 2.2
5.9000001 4.9499998 2.3
5.9000001 4.9499998 2.4000001
5.9000001 4.9499998 2.5
5.9000001 4.9499998 2.5999999
5.9000001 4.9499998 2.7
5.9000001 4.9499998 2.8
5.9000001 4.9499998 2.9000001
5.9000001 4.9499998 3
5.9000001 4.9499998 3.0999999
5.9000001 4.9499998 3.2
5.9000001 4.9499998 3.3
5.9000001 4.9499998 3.4000001
5.9000001 5.0500002 -0.5
5.9000001 5.0500002 -0.40000001
5.9000001 5.0500002 -0.30000001
5.9000001 5.0500002 -0.2
5.9000001 5.0500002 -0.1
5.9000001 5.0500002 -2.7755576e-17
5.9000001 5.0500002 0.1
5.9000001 5.0500002 0.2
5.9000001 5.0500002 0.30000001
5.9000001 5.0500002 0.40000001
5.9000001 5.0500002 0.5
5.9000001 5.0500002 0.60000002
5.9000001 5.0500002 0.69999999
5.9000001 5.0500002 0.80000001
5.9000001 5.0500002 0.89999998
5.9000001 5.0500002 1
5.9000001 5.0500002 1.1
5.9000001 5.0500002 1.2
5.9000001 5.0500002 1.3
5.9000001 5.0500002 1.4
5.9000001 5.0500002 1.5
5.9000001 5.0500002 1.6
5.9000001 5.0500002 1.7
5.9000001 5.0500002 1.8
5.9000001 5.0500002 1.9
5.9000001 5.0500002 2
5.9000001 5.0500002 2.0999999
5.9000001 5.0500002 2.2
5.9000001 5.0500002 2.3
5.9000001 5.0500002 2.4000001
5.9000001 5.0500002 2.5
5.9000001 5.0500002 2.5999999
5.9000001 5.0500002 2.7
5.9000001 5.0500002 2.8
5.9000001 5.0500002 2.9000001
5.9000001 5.0500002 3
5.9000001 5.0500002 3.0999999
5.9000001 5.0500002 3.2
5.9000001 5.0500002 3.3
5.9000001 5.0500002 3.4000001
5.9000001 5.1500001 -0.5
5.9000001 5.1500001 -0.40000001
5.9000001 5.1500001 -0.30000001
5.9000001 5.1500001 -0.2
5.9000001 5.1500001 -0.1
5.9000001 5.1500001 -2.7755576e-17
5.9000001 5.1500001 0.1
5.9000001 5.1500001 0.2
5.9000001 5.1500001 0.30000001
5.9000001 5.1500001 0.40000001
5.9000001 5.1500001 0.5
5.9000001 5.1500001 0.60000002
5.9000001 5.1500001 0.69999999
5.9000001 5.1500001 0.80000001
5.9000001 5.1500001 0.89999998
5.9000001 5.1500001 1
5.9000001 5.1500001 1.1
5.9000001 5.1500001 1.2
5.9000001 5.1500001 1.3
5.9000001 5.1500001 1.4
5.9000001 5.1500001 1.5
5.9000001 5.1500001 1.6
5.9000001 5.1500001 1.7
5.9000001 5.1500001 1.8
5.9000001 5.1500001 1.9
5.9000001 5.1500001 2
5.9000001 5.1500001 2.0999999
5.9000001 5.1500001 2.2
5.9000001 5.1500001 2.3
5.9000001 5.1500001 2.4000001
5.9000001 5.1500001 2.5
5.9000001 5.1500001 2.5999999
5.9000001 5.1500001 2.7
5.9000001 5.1500001 2.8
5.9000001 5.1500001 2.9000001
5.9000001 5.1500001 3
5.9000001 5.1500001 3.0999999
5.9000001 5.1500001 3.2
5.9000001 5.1500001 3.3
5.9000001 5.1500001 3.4000001
6 4.8499999 -0.5
6 4.8499999 -0.40000001
6 4.8499999 -0.30000001
6 4.8499999 -0.2
6 4.8499999 -0.1
6 4.8499999 -2.7755576e-17
6 4.8499999 0.1
6 4.8499999 0.2
6 4.8499999 0.30000001
6 4.8499999 0.40000001
6 4.8499999 0.5
6 4.8499999 0.60000002
6 4.8499999 0.69999999
6 4.8499999 0.80000001
6 4.8499999 0.89999998
6 4.8499999 1
6 4.8499999 1.1
6 4.8499999 1.2
6 4.8499999 1.3
6 4.8499999 1.4
6 4.8499999 1.5
6 4.8499999 1.6
6 4.8499999 1.7
6 4.8499999 1.8
6 4.8499999 1.9
6 4.8499999 2
6 4.8499999 2.0999999
6 4.8499999 2.2
6 4.8499999 2.3
6 4.8499999 2.4000001
6 4.8499999 2.5
6 4.8499999 2.5999999
6 4.8499999 2.7
6 4.8499999 2.8
6 4.8499999 2.9000001
6 4.8499999 3
6 4.8499999 3.0999999
6 4.8499999 3.2
6 4.8499999 3.3
6 4.8499999 3.4000001
6 4.9499998 -0.5
6 4.9499998 -0.40000001
6 4.9499998 -0.30000001
6 4.9499998 -0.2
6 4.9499998 -0.1
6 4.9499998 -2.7755576e-17
6 4.9499998 0.1
6 4.9499998 0.2
6 4.9499998 0.30000001
6 4.9499998 0.40000001
6 4.9499998 0.5
6 4.9499998 0.60000002
6 4.9499998 0.69999999
6 4.9499998 0.80000001
6 4.9499998 0.89999998
6 4.9499998 1
6 4.9499998 1.1
6 4.9499998 1.2
6 4.9499998 1.3
6 4.9499998 1.4
6 4.9499998 1.5
6 4.9499998 1.6
6 4.9499998 1.7
6 4.9499998 1.8
6 4.9499998 1.9
6 4.9499998 2
6 4.9499998 2.0999999
6 4.9499998 2.2
6 4.9499998 2.3
6 4.9499998 2.4000001
6 4.9499998 2.5
6 4.9499998 2.5999999
6 4.9499998 2.7
6 4.9499998 2.8
6 4.9499998 2.9000001
6 4.9499998 3
6 4.9499998 3.0999999
6 4.9499998 3.2
6 4.9499998 3.3
6 4.9499998 3.4000001
6 5.0500002 -0.5
6 5.0500002 -0.40000001
6 5.0500002 -0.30000001
6 5.0500002 -0.2
6 5.0500002 -0.1
6 5.0500002 -2.7755576e-17
6 5.0500002 0.1
6 5.0500002 0.2
6 5.0500002 0.30000001
6 5.0500002 0.40000001
6 5.0500002 0.5
6 5.0500002 0.60000002
6 5.0500002 0.69999999
6 5.0500002 0.80000001
6 5.0500002 0.89999998
6 5.0500002 1
6 5.0500002 1.1
6 5.0500002 1.2
6 5.0500002 1.3
6 5.0500002 1.4
6 5.0500002 1.5
6 5.0500002 1.6
6 5.0500002 1.7
6 5.0500002 1.8
6 5.0500002 1.9
6 5.0500002 2
6 5.0500002 2.0999999
6 5.0500002 2.2
6 5.0500002 2.3
6 5.0500002 2.4000001
6 5.0500002 2.5
6 5.0500002 2.5999999
6 5.0500002 2.7
6 5.0500002 2.8
6 5.0500002 2.9000001
6 5.0500002 3
6 5.0500002 3.0999999
6 5.0500002 3.2
6 5.0500002 3.3
6 5.0500002 3.4000001
6 5.1500001 -0.5
6 5.1500001 -0.40000001
6 5.1500001 -0.30000001
6 5.1500001 -0.2
6 5.1500001 -0.1
6 5.1500001 -2.7755576e-17
6 5.1500001 0.1
6 5.1500001 0.2
6 5.1500001 0.30000001
6 5.1500001 0.40000001
6 5.1500001 0.5
6 5.1500001 0.60000002
6 5.1500001 0.69999999
6 5.1500001 0.80000001
6 5.1500001 0.89999998
6 5.1500001 1
6 5.1500001 1.1
6 5.1500001 1.2
6 5.1500001 1.3
6 5.1500001 1.4
6 5.1500001 1.5
6 5.1500001 1.6
6 5.1500001 1.7
6 5.1500001 1.8
6 5.1500001 1.9
6 5.1500001 2
6 5.1500001 2.0999999
6 5.1500001 2.2
6 5.1500001 2.3
6 5.1500001 2.4000001
6 5.1500001 2.5
6 5.1500001 2.5999999
6 5.1500001 2.7
6 5.1500001 2.8
6 5.1500001 2.9000001
6 5.1500001 3
6 5.1500001 3.0999999
6 5.1500001 3.2
6 5.1500001 3.3
6 5.1500001 3.4000001
6.0999999 4.8499999 -0.5
6.0999999 4.8499999 -0.40000001
6.0999999 4.8499999 -0.30000001
6.0999999 4.8499999 -0.2
6.0999999 4.8499999 -0.1
6.0999999 4.8499999 -2.7755576e-17
6.0999999 4.8499999 0.1
6.0999999 4.8499999 0.2
6.0999999 4.8499999 0.30000001
6.0999999 4.8499999 0.40000001
6.0999999 4.8499999 0.5
6.0999999 4.8499999 0.60000002
6.0999999 4.8499999 0.69999999
6.0999999 4.8499999 0.80000001
6.0999999 4.8499999 0.89999998
6.0999999 4.8499999 1
6.0999999 4.8499999 1.1
6.0999999 4.8499999 1.2
6.0999999 4.8499999 1.3
6.0999999 4.8499999 1.4
6.0999999 4.8499999 1.5
6.0999999 4.8499999 1.6
6.0999999 4.8499999 1.7
6.0999999 4.8499999 1.8
6.0999999 4.8499999 1.9
6.0999999 4.8499999 2
6.0999999 4.8499999 2.0999999
6.0999999 4.8499999 2.2
6.0999999 4.8499999 2.3
6.0999999 4.8499999 2.4000001
6.0999999 4.8499999 2.5
6.0999999 4.8499999 2.5999999
6.0999999 4.8499999 2.7
6.0999999 4.8499999 2.8
6.0999999 4.8499999 2.9000001
6.0999999 4.8499999 3
6.0999999 4.8499999 3.0999999
6.0999999 4.8499999 3.2
6.0999999 4.8499999 3.3
6.0999999 4.8499999 3.4000001
6.0999999 4.9499998 -0.5
6.0999999 4.9499998 -0.40000001
6.0999999 4.9499998 -0.30000001
6.0999999 4.9499998 -0.2
6.0999999 4.9499998 -0.1
6.0999999 4.9499998 -2.7755576e-17
6.0999999 4.9499998 0.1
6.0999999 4.9499998 0.2
6.0999999 4.9499998 0.30000001
6.0999999 4.9499998 0.40000001
6.0999999 4.9499998 0.5
6.0999999 4.9499998 0.60000002
6.0999999 4.9499998 0.69999999
6.0999999 4.9499998 0.80000001
6.0999999 4.9499998 0.89999998
6.0999999 4.9499998 1
6.0999999 4.9499998 1.1
6.0999999 4.9499998 1.2
6.0999999 4.9499998 1.3
6.0999999 4.9499998 1.4
6.0999999 4.9499998 1.5
6.0999999 4.9499998 1.6
6.0999999 4.9499998 1.7
6.0999999 4.9499998 1.8
6.0999999 4.9499998 1.9
6.0999999 4.9499998 2
6.0999999 4.9499998 2.0999999
6.0999999 4.9499998 2.2
6.0999999 4.9499998 2.3
6.0999999 4.9499998 2.4000001
6.0999999 4.9499998 2.5
6.0999999 4.9499998 2.5999999
6.0999999 4.9499998 2.7
6.0999999 4.9499998 2.8
6.0999999 4.9499998 2.9000001
6.0999999 4.9499998 3
6.0999999 4.9499998 3.0999999
6.0999999 4.9499998 3.2
6.0999999 4.9499998 3.3
6.0999999 4.9499998 3.4000001
6.0999999 5.0500002 -0.5
6.0999999 5.0500002 -0.40000001
6.0999999 5.0500002 -0.30000001
6.0999999 5.0500002 -0.2
6.0999999 5.0500002 -0.1
6.0999999 5.0500002 -2.7755576e-17
6.0999999 5.0500002 0.1
6.0999999 5.0500002 0.2
6.0999999 5.0500002 0.30000001
6.0999999 5.0500002 0.40000001
6.0999999 5.0500002 0.5
6.0999999 5.0500002 0.60000002
6.0999999 5.0500002 0.69999999
6.0999999 5.0500002 0.80000001
6.0999999 5.0500002 0.89999998
6.0999999 5.0500002 1
6.0999999 5.0500002 1.1
6.0999999 5.0500002 1.2
6.0999999 5.0500002 1.3
6.0999999 5.0500002 1.4
6.0999999 5.0500002 1.5
6.0999999 5.0500002 1.6
6.0999999 5.0500002 1.7
6.0999999 5.0500002 1.8
6.0999999 5.0500002 1.9
6.0999999 5.0500002 2
6.0999999 5.0500002 2.0999999
6.0999999 5.0500002 2.2
6.0999999 5.0500002 2.3
6.0999999 5.0500002 2.4000001
6.0999999 5.0500002 2.5
6.0999999 5.0500002 2.5999999
6.0999999 5.0500002 2.7
6.0999999 5.0500002 2.8
6.0999999 5.0500002 2.9000001
6.0999999 5.0500002 3
6.0999999 5.0500002 3.0999999
6.0999999 5.0500002 3.2
6.0999999 5.0500002 3.3
6.0999999 5.0500002 3.4000001
6.0999999 5.1500001 -0.5
6.0999999 5.1500001 -0.40000001
6.0999999 5.1500001 -0.30000001
6.0999999 5.1500001 -0.2
6.0999999 5.1500001 -0.1
6.0999999 5.1500001 -2.7755576e-17
6.0999999 5.1500001 0.1
6.0999999 5.1500001 0.2
6.0999999 5.1500001 0.30000001
6.0999999 5.1500001 0.40000001
6.0999999 5.1500001 0.5
6.0999999 5.1500001 0.60000002
6.0999999 5.1500001 0.69999999
6.0999999 5.1500001 0.80000001
6.0999999 5.1500001 0.89999998
6.0999999 5.1500001 1
6.0999999 5.1500001 1.1
6.0999999 5.1500001 1.2
6.0999999 5.1500001 1.3
6.0999999 5.1500001 1.4
6.0999999 5.1500001 1.5
6.0999999 5.1500001 1.6
6.0999999 5.1500001 1.7
6.0999999 5.1500001 1.8
6.0999999 5.1500001 1.9
6.0999999 5.1500001 2
6.0999999 5.1500001 2.0999999
6.0999999 5.1500001 2.2
6.0999999 5.1500001 2.3
6.0999999 5.1500001 2.4000001
6.0999999 5.1500001 2.5
6.0999999 5.1500001 2.5999999
6.0999999 5.1500001 2.7
6.0999999 5.1500001 2.8
6.0999999 5.1500001 2.9000001
6.0999999 5.1500001 3
6.0999999 5.1500001 3.0999999
6.0999999 5.1500001 3.2
6.0999999 5.1500001 3.3
6.0999999 5.1500001 3.4000001
6.1999998 4.8499999 -0.5
6.1999998 4.8499999 -0.40000001
6.1999998 4.8499999 -0.30000001
6.1999998 4.8499999 -0.2
6.1999998 4.8499999 -0.1
6.1999998 4.8499999 -2.7755576e-17
6.1999998 4.8499999 0.1
6.1999998 4.8499999 0.2
6.1999998 4.8499999 0.30000001
6.1999998 4.8499999 0.40000001
6.1999998 4.8499999 0.5
6.1999998 4.8499999 0.60000002
6.1999998 4.8499999 0.69999999
6.1999998 4.8499999 0.80000001
6.1999998 4.8499999 0.89999998
6.1999998 4.8499999 1
6.1999998 4.8499999 1.1
6.1999998 4.8499999 1.2
6.1999998 4.8499999 1.3
6.1999998 4.8499999 1.4
6.1999998 4.8499999 1.5
6.1999998 4.8499999 1.6
6.1999998 4.8499999 1.7
6.1999998 4.8499999 1.8
6.1999998 4.8499999 1.9
6.1999998 4.8499999 2
6.1999998 4.8499999 2.0999999
6.1999998 4.8499999 2.2
6.1999998 4.8499999 2.3
6.1999998 4.8499999 2.4000001
6.1999998 4.8499999 2.5
6.1999998 4.8499999 2.5999999
6.1999998 4.8499999 2.7
6.1999998 4.8499999 2.8
6.1999998 4.8499999 2.9000001
6.1999998 4.8499999 3
6.1999998 4.8499999 3.0999999
6.1999998 4.8499999 3.2
6.1999998 4.8499999 3.3
6.1999998 4.8499999 3.4000001
6.1999998 4.9499998 -0.5
6.1999998 4.9499998 -0.40000001
6.1999998 4.9499998 -0.30000001
6.1999998 4.9499998 -0.2
6.1999998 4.9499998 -0.1
6.1999998 4.9499998 -2.7755576e-17
6.1999998 4.9499998 0.1
6.1999998 4.9499998 0.2
6.1999998 4.9499998 0.30000001
6.1999998 4.9499998 0.40000001
6.1999998 4.9499998 0.5
6.1999998 4.9499998 0.60000002
6.1999998 4.9499998 0.69999999
6.1999998 4.9499998 0.80000001
6.1999998 4.9499998 0.89999998
6.1999998 4.9499998 1
6.1999998 4.9499998 1.1
6.1999998 4.9499998 1.2
6.1999998 4.9499998 1.3
6.1999998 4.9499998 1.4
6.1999998 4.9499998 1.5
6.1999998 4.9499998 1.6
6.1999998 4.9499998 1.7
6.1999998 4.9499998 1.8
6.1999998 4.9499998 1.9
6.1999998 4.9499998 2
6.1999998 4.9499998 2.0999999
6.1999998 4.9499998 2.2
6.1999998 4.9499998 2.3
6.1999998 4.9499998 2.4000001
6.1999998 4.9499998 2.5
6.1999998 4.9499998 2.5999999
6.1999998 4.9499998 2.7
6.1999998 4.9499998 2.8
6.1999998 4.9499998 2.9000001
6.1999998 4.9499998 3
6.1999998 4.9499998 3.0999999
6.1999998 4.9499998 3.2
6.1999998 4.9499998 3.3
6.1999998 4.9499998 3.4000001
6.1999998 5.0500002 -0.5
6.1999998 5.0500002 -0.40000001
6.1999998 5.0500002 -0.30000001
6.1999998 5.0500002 -0.2
6.1999998 5.0500002 -0.1
6.1999998 5.0500002 -2.7755576e-17
6.1999998 5.0500002 0.1
6.1999998 5.0500002 0.2
6.1999998 5.0500002 0.30000001
6.1999998 5.0500002 0.40000001
6.1999998 5.0500002 0.5
6.1999998 5.0500002 0.60000002
6.1999998 5.0500002 0.69999999
6.1999998 5.0500002 0.80000001
6.1999998 5.0500002 0.89999998
6.1999998 5.0500002 1
6.1999998 5.0500002 1.1
6.1999998 5.0500002 1.2
6.1999998 5.0500002 1.3
6.1999998 5.0500002 1.4
6.1999998 5.0500002 1.5
6.1999998 5.0500002 1.6
6.1999998 5.0500002 1.7
6.1999998 5.0500002 1.8
6.1999998 5.0500002 1.9
6.1999998 5.0500002 2
6.1999998 5.0500002 2.0999999
6.1999998 5.0500002 2.2
6.1999998 5.0500002 2.3
6.1999998 5.0500002 2.4000001
6.1999998 5.0500002 2.5
6.1999998 5.0500002 2.5999999
6.1999998 5.0500002 2.7
6.1999998 5.0500002 2.8
6.1999998 5.0500002 2.9000001
6.1999998 5.0500002 3
6.1999998 5.0500002 3.0999999
6.1999998 5.0500002 3.2
6.1999998 5.0500002 3.3
6.1999998 5.0500002 3.4000001
6.1999998 5.1500001 -0.5
6.1999998 5.1500001 -0.40000001
6.1999998 5.1500001 -0.30000001
6.1999998 5.1500001 -0.2
6.1999998 5.1500001 -0.1
6.1999998 5.1500001 -2.7755576e-17
6.1999998 5.1500001 0.1
6.1999998 5.1500001 0.2
6.1999998 5.1500001 0.30000001
6.1999998 5.1500001 0.40000001
6.1999998 5.1500001 0.5
6.1999998 5.1500001 0.60000002
6.1999998 5.1500001 0.69999999
6.1999998 5.1500001 0.80000001
6.1999998 5.1500001 0.89999998
6.1999998 5.1500001 1
6.1999998 5.1500001 1.1
6.1999998 5.1500001 1.2
6.1999998 5.1500001 1.3
6.1999998 5.1500001 1.4
6.1999998 5.1500001 1.5
6.1999998 5.1500001 1.6
6.1999998 5.1500001 1.7
6.1999998 5.1500001 1.8
6.1999998 5.1500001 1.9
6.1999998 5.1500001 2
6.1999998 5.1500001 2.0999999
6.1999998 5.1500001 2.2
6.1999998 5.1500001 2.3
6.1999998 5.1500001 2.4000001
6.1999998 5.1500001 2.5
6.1999998 5.1500001 2.5999999
6.1999998 5.1500001 2.7
6.1999998 5.1500001 2.8
6.1999998 5.1500001 2.9000001
6.1999998 5.1500001 3
6.1999998 5.1500001 3.0999999
6.1999998 5.1500001 3.2
6.1999998 5.1500001 3.3
6.1999998 5.1500001 3.4000001
6.3000002 4.8499999 -0.5
6.3000002 4.8499999 -0.40000001
6.3000002 4.8499999 -0.30000001
6.3000002 4.8499999 -0.2
6.3000002 4.8499999 -0.1
6.3000002 4.8499999 -2.7755576e-17
6.3000002 4.8499999 0.1
6.3000002 4.8499999 0.2
6.3000002 4.8499999 0.30000001
6.3000002 4.8499999 0.40000001
6.3000002 4.8499999 0.5
6.3000002 4.8499999 0.60000002
6.3000002 4.8499999 0.69999999
6.3000002 4.8499999 0.80000001
6.3000002 4.8499999 0.89999998
6.3000002 4.8499999 1
6.3000002 4.8499999 1.1
6.3000002 4.8499999 1.2
6.3000002 4.8499999 1.3
6.3000002 4.8499999 1.4
6.3000002 4.8499999 1.5
6.3000002 4.8499999 1.6
6.3000002 4.8499999 1.7
6.3000002 4.8499999 1.8
6.3000002 4.8499999 1.9
6.3000002 4.8499999 2
6.3000002 4.8499999 2.0999999
6.3000002 4.8499999 2.2
6.3000002 4.8499999 2.3
6.3000002 4.8499999 2.4000001
6.3000002 4.8499999 2.5
6.3000002 4.8499999 2.5999999
6.3000002 4.8499999 2.7
6.3000002 4.8499999 2.8
6.3000002 4.8499999 2.9000001
6.3000002 4.8499999 3
6.3000002 4.8499999 3.0999999
6.3000002 4.8499999 3.2
6.3000002 4.8499999 3.3
6.3000002 4.8499999 3.4000001
6.3000002 4.9499998 -0.5
6.3000002 4.9499998 -0.40000001
6.3000002 4.9499998 -0.30000001
6.3000002 4.9499998 -0.2
6.3000002 4.9499998 -0.1
6.3000002 4.9499998 -2.7755576e-17
6.3000002 4.9499998 0.1
6.3000002 4.9499998 0.2
6.3000002 4.9499998 0.30000001
6.3000002 4.9499998 0.40000001
6.3000002 4.9499998 0.5
6.3000002 4.9499998 0.60000002
6.3000002 4.9499998 0.69999999
6.3000002 4.9499998 0.80000001
6.3000002 4.9499998 0.89999998
6.3000002 4.9499998 1
6.3000002 4.9499998 1.1
6.3000002 4.9499998 1.2
6.3000002 4.9499998 1.3
6.3000002 4.9499998 1.4
6.3000002 4.9499998 1.5
6.3000002 4.9499998 1.6
6.3000002 4.9499998 1.7
6.3000002 4.9499998 1.8
6.3000002 4.9499998 1.9
6.3000002 4.9499998 2
6.3000002 4.9499998 2.0999999
6.3000002 4.9499998 2.2
6.3000002 4.9499998 2.3
6.3000002 4.9499998 2.4000001
6.3000002 4.9499998 2.5
6.3000002 4.9499998 2.5999999
6.3000002 4.9499998 2.7
6.3000002 4.9499998 2.8
6.3000002 4.9499998 2.9000001
6.3000002 4.9499998 3
6.3000002 4.9499998 3.0999999
6.3000002 4.9499998 3.2
6.3000002 4.9499998 3.3
6.3000002 4.9499998 3.4000001
6.3000002 5.0500002 -0.5
6.3000002 5.0500002 -0.40000001
6.3000002 5.0500002 -0.30000001
6.3000002 5.0500002 -0.2
6.3000002 5.0500002 -0.1
6.3000002 5.0500002 -2.7755576e-17
6.3000002 5.0500002 0.1
6.3000002 5.0500002 0.2
6.3000002 5.0500002 0.30000001
6.3000002 5.0500002 0.40000001
6.3000002 5.0500002 0.5
6.3000002 5.0500002 0.60000002
6.3000002 5.0500002 0.69999999
6.3000002 5.0500002 0.80000001
6.3000002 5.0500002 0.89999998
6.3000002 5.0500002 1
6.3000002 5.0500002 1.1
6.3000002 5.0500002 1.2
6.3000002 5.0500002 1.3
6.3000002 5.0500002 1.4
6.3000002 5.0500002 1.5
6.3000002 5.0500002 1.6
6.3000002 5.0500002 1.7
6.3000002 5.0500002 1.8
6.3000002 5.0500002 1.9
6.3000002 5.0500002 2
6.3000002 5.0500002 2.0999999
6.3000002 5.0500002 2.2
6.3000002 5.0500002 2.3
6.3000002 5.0500002 2.4000001
6.3000002 5.0500002 2.5
6.3000002 5.0500002 2.5999999
6.3000002 5.0500002 2.7
6.3000002 5.0500002 2.8
6.3000002 5.0500002 2.9000001
6.3000002 5.0500002 3
6.3000002 5.0500002 3.0999999
6.3000002 5.0500002 3.2
6.3000002 5.0500002 3.3
6.3000002 5.0500002 3.4000001
6.3000002 5.1500001 -0.5
6.3000002 5.1500001 -0.40000001
6.3000002 5.1500001 -0.30000001
6.3000002 5.1500001 -0.2
6.3000002 5.1500001 -0.1
6.3000002 5.1500001 -2.7755576e-17
6.3000002 5.1500001 0.1
6.3000002 5.1500001 0.2
6.3000002 5.1500001 0.30000001
6.3000002 5.1500001 0.40000001
6.3000002 5.1500001 0.5
6.3000002 5.1500001 0.60000002
6.3000002 5.1500001 0.69999999
6.3000002 5.1500001 0.80000001
6.3000002 5.1500001 0.89999998
6.3000002 5.1500001 1
6.3000002 5.1500001 1.1
6.3000002 5.1500001 1.2
6.3000002 5.1500001 1.3
6.3000002 5.1500001 1.4
6.3000002 5.1500001 1.5
6.3000002 5.1500001 1.6
6.3000002 5.1500001 1.7
6.3000002 5.1500001 1.8
6.3000002 5.1500001 1.9
6.3000002 5.1500001 2
6.3000002 5.1500001 2.0999999
6.3000002 5.1500001 2.2
6.3000002 5.1500001 2.3
6.3000002 5.1500001 2.4000001
6.3000002 5.1500001 2.5
6.3000002 5.1500001 2.5999999
6.3000002 5.1500001 2.7
6.3000002 5.1500001 2.8
6.3000002 5.1500001 2.9000001
6.3000002 5.1500001 3
6.3000002 5.1500001 3.0999999
6.3000002 5.1500001 3.2
6.3000002 5.1500001 3.3
6.3000002 5.1500001 3.4000001
6.4000001 4.8499999 -0.5
6.4000001 4.8499999 -0.40000001
6.4000001 4.8499999 -0.30000001
6.4000001 4.8499999 -0.2
6.4000001 4.8499999 -0.1
6.4000001 4.8499999 -2.7755576e-17
6.4000001 4.8499999 0.1
6.4000001 4.8499999 0.2
6.4000001 4.8499999 0.30000001
6.4000001 4.8499999 0.40000001
6.4000001 4.8499999 0.5
6.4000001 4.8499999 0.60000002
6.4000001 4.8499999 0.69999999
6.4000001 4.8499999 0.80000001
6.4000001 4.8499999 0.89999998
6.4000001 4.8499999 1
6.4000001 4.8499999 1.1
6.4000001 4.8499999 1.2
6.4000001 4.8499999 1.3
6.4000001 4.8499999 1.4
6.4000001 4.8499999 1.5
6.4000001 4.8499999 1.6
6.4000001 4.8499999 1.7
6.4000001 4.8499999 1.8
6.4000001 4.8499999 1.9
6.4000001 4.8499999 2
6.4000001 4.8499999 2.0999999
6.4000001 4.8499999 2.2
6.4000001 4.8499999 2.3
6.4000001 4.8499999 2.4000001
6.4000001 4.8499999 2.5
6.4000001 4.8499999 2.5999999
6.4000001 4.8499999 2.7
6.4000001 4.8499999 2.8
6.4000001 4.8499999 2.9000001
6.4000001 4.8499999 3
6.4000001 4.8499999 3.0999999
6.4000001 4.8499999 3.2
6.4000001 4.8499999 3.3
6.4000001 4.8499999 3.4000001
6.4000001 4.9499998 -0.5
6.4000001 4.9499998 -0.40000001
6.4000001 4.9499998 -0.30000001
6.4000001 4.9499998 -0.2
6.4000001 4.9499998 -0.1
6.4000001 4.9499998 -2.7755576e-17
6.4000001 4.9499998 0.1
6.4000001 4.9499998 0.2
6.4000001 4.9499998 0.30000001
6.4000001 4.9499998 0.40000001
6.4000001 4.9499998 0.5
6.4000001 4.9499998 0.60000002
6.4000001 4.9499998 0.69999999
6.4000001 4.9499998 0.80000001
6.4000001 4.9499998 0.89999998
6.4000001 4.9499998 1
6.4000001 4.9499998 1.1
6.4000001 4.9499998 1.2
6.4000001 4.9499998 1.3
6.4000001 4.9499998 1.4
6.4000001 4.9499998 1.5
6.4000001 4.9499998 1.6
6.4000001 4.9499998 1.7
6.4000001 4.9499998 1.8
6.4000001 4.9499998 1.9
6.4000001 4.9499998 2
6.4000001 4.9499998 2.0999999
6.4000001 4.9499998 2.2
6.4000001 4.9499998 2.3
6.4000001 4.9499998 2.4000001
6.4000001 4.9499998 2.5
6.4000001 4.9499998 2.5999999
6.4000001 4.9499998 2.7
6.4000001 4.9499998 2.8
6.4000001 4.9499998 2.9000001
6.4000001 4.9499998 3
6.4000001 4.9499998 3.0999999
6.4000001 4.9499998 3.2
6.4000001 4.9499998 3.3
6.4000001 4.9499998 3.4000001
6.4000001 5.0500002 -0.5
6.4000001 5.0500002 -0.40000001
6.4000001 5.0500002 -0.30000001
6.4000001 5.0500002 -0.2
6.4000001 5.0500002 -0.1
6.4000001 5.0500002 -2.7755576e-17
6.4000001 5.0500002 0.1
6.4000001 5.0500002 0.2
6.4000001 5.0500002 0.30000001
6.4000001 5.0500002 0.40000001
6.4000001 5.0500002 0.5
6.4000001 5.0500002 0.60000002
6.4000001 5.0500002 0.69999999
6.4000001 5.0500002 0.80000001
6.4000001 5.0500002 0.89999998
6.4000001 5.0500002 1
6.4000001 5.0500002 1.1
6.4000001 5.0500002 1.2
6.4000001 5.0500002 1.3
6.4000001 5.0500002 1.4
6.4000001 5.0500002 1.5
6.4000001 5.0500002 1.6
6.4000001 5.0500002 1.7
6.4000001 5.0500002 1.8
6.4000001 5.0500002 1.9
6.4000001 5.0500002 2
6.4000001 5.0500002 2.0999999
6.4000001 5.0500002 2.2
6.4000001 5.0500002 2.3
6.4000001 5.0500002 2.4000001
6.4000001 5.0500002 2.5
6.4000001 5.0500002 2.5999999
6.4000001 5.0500002 2.7
6.4000001 5.0500002 2.8
6.4000001 5.0500002 2.9000001
6.4000001 5.0500002 3
6.4000001 5.0500002 3.0999999
6.4000001 5.0500002 3.2
6.4000001 5.0500002 3.3
6.4000001 5.0500002 3.4000001
6.4000001 5.1500001 -0.5
6.4000001 5.1500001 -0.40000001
6.4000001 5.1500001 -0.30000001
6.4000001 5.1500001 -0.2
6.4000001 5.1500001 -0.1
6.4000001 5.1500001 -2.7755576e-17
6.4000001 5.1500001 0.1
6.4000001 5.1500001 0.2
6.4000001 5.1500001 0.30000001
6.4000001 5.1500001 0.40000001
6.4000001 5.1500001 0.5
6.4000001 5.1500001 0.60000002
6.4000001 5.1500001 0.69999999
6.4000001 5.1500001 0.80000001
6.4000001 5.1500001 0.89999998
6.4000001 5.1500001 1
6.4000001 5.1500001 1.1
6.4000001 5.1500001 1.2
6.4000001 5.1500001 1.3
6.4000001 5.1500001 1.4
6.4000001 5.1500001 1.5
6.4000001 5.1500001 1.6
6.4000001 5.1500001 1.7
6.4000001 5.1500001 1.8
6.4000001 5.1500001 1.9
6.4000001 5.1500001 2
6.4000001 5.1500001 2.0999999
6.4000001 5.1500001 2.2
6.4000001 5.1500001 2.3
6.4000001 5.1500001 2.4000001
6.4000001 5.1500001 2.5
6.4000001 5.1500001 2.5999999
6.4000001 5.1500001 2.7
6.4000001 5.1500001 2.8
6.4000001 5.1500001 2.9000001
6.4000001 5.1500001 3
6.4000001 5.1500001 3.0999999
6.4000001 5.1500001 3.2
6.4000001 5.1500001 3.3
6.4000001 5.1500001 3.4000001
6.5 4.8499999 -0.5
6.5 4.8499999 -0.40000001
6.5 4.8499999 -0.30000001
6.5 4.8499999 -0.2
6.5 4.8499999 -0.1
6.5 4.8499999 -2.7755576e-17
6.5 4.8499999 0.1
6.5 4.8499999 0.2
6.5 4.8499999 0.30000001
6.5 4.8499999 0.40000001
6.5 4.8499999 0.5
6.5 4.8499999 0.60000002
6.5 4.8499999 0.69999999
6.5 4.8499999 0.80000001
6.5 4.8499999 0.89999998
6.5 4.8499999 1
6.5 4.8499999 1.1
6.5 4.8499999 1.2
6.5 4.8499999 1.3
6.5 4.8499999 1.4
6.5 4.8499999 1.5
6.5 4.8499999 1.6
6.5 4.8499999 1.7
6.5 4.8499999 1.8
6.5 4.8499999 1.9
6.5 4.8499999 2
6.5 4.8499999 2.0999999
6.5 4.8499999 2.2
6.5 4.8499999 2.3
6.5 4.8499999 2.4000001
6.5 4.8499999 2.5
6.5 4.8499999 2.5999999
6.5 4.8499999 2.7
6.5 4.8499999 2.8
6.5 4.8499999 2.9000001
6.5 4.8499999 3
6.5 4.8499999 3.0999999
6.5 4.8499999 3.2
6.5 4.8499999 3.3
6.5 4.8499999 3.4000001
6.5 4.9499998 -0.5
6.5 4.9499998 -0.40000001
6.5 4.9499998 -0.30000001
6.5 4.9499998 -0.2
6.5 4.9499998 -0.1
6.5 4.9499998 -2.7755576e-17
6.5 4.9499998 0.1
6.5 4.9499998 0.2
6.5 4.9499998 0.30000001
6.5 4.9499998 0.40000001
6.5 4.9499998 0.5
6.5 4.9499998 0.60000002
6.5 4.9499998 0.69999999
6.5 4.9499998 0.80000001
6.5 4.9499998 0.89999998
6.5 4.9499998 1
6.5 4.9499998 1.1
6.5 4.9499998 1.2
6.5 4.9499998 1.3
6.5 4.9499998 1.4
6.5 4.9499998 1.5
6.5 4.9499998 1.6
6.5 4.9499998 1.7
6.5 4.9499998 1.8
6.5 4.9499998 1.9
6.5 4.9499998 2
6.5 4.9499998 2.0999999
6.5 4.9499998 2.2
6.5 4.9499998 2.3
6.5 4.9499998 2.4000001
6.5 4.9499998 2.5
6.5 4.9499998 2.5999999
6.5 4.9499998 2.7
6.5 4.9499998 2.8
6.5 4.9499998 2.9000001
6.5 4.9499998 3
6.5 4.9499998 3.0999999
6.5 4.9499998 3.2
6.5 4.9499998 3.3
6.5 4.9499998 3.4000001
6.5 5.0500002 -0.5
6.5 5.0500002 -0.40000001
6.5 5.0500002 -0.30000001
6.5 5.0500002 -0.2
6.5 5.0500002 -0.1
6.5 5.0500002 -2.7755576e-17
6.5 5.0500002 0.1
6.5 5.0500002 0.2
6.5 5.0500002 0.30000001
6.5 5.0500002 0.40000001
6.5 5.0500002 0.5
6.5 5.0500002 0.60000002
6.5 5.0500002 0.69999999
6.5 5.0500002 0.80000001
6.5 5.0500002 0.89999998
6.5 5.0500002 1
6.5 5.0500002 1.1
6.5 5.0500002 1.2
6.5 5.0500002 1.3
6.5 5.0500002 1.4
6.5 5.0500002 1.5
6.5 5.0500002 1.6
6.5 5.0500002 1.7
6.5 5.0500002 1.8
6.5 5.0500002 1.9
6.5 5.0500002 2
6.5 5.0500002 2.0999999
6.5 5.0500002 2.2
6.5 5.0500002 2.3
6.5 5.0500002 2.4000001
6.5 5.0500002 2.5
6.5 5.0500002 2.5999999
6.5 5.0500002 2.7
6.5 5.0500002 2.8
6.5 5.0500002 2.9000001
6.5 5.0500002 3
6.5 5.0500002 3.0999999
6.5 5.0500002 3.2
6.5 5.0500002 3.3
6.5 5.0500002 3.4000001
6.5 5.1500001 -0.5
6.5 5.1500001 -0.40000001
6.5 5.1500001 -0.30000001
6.5 5.1500001 -0.2
6.5 5.1500001 -0.1
6.5 5.1500001 -2.7755576e-17
6.5 5.1500001 0.1
6.5 5.1500001 0.2
6.5 5.1500001 0.30000001
6.5 5.1500001 0.40000001
6.5 5.1500001 0.5
6.5 5.1500001 0.60000002
6.5 5.1500001 0.69999999
6.5 5.1500001 0.80000001
6.5 5.1500001 0.89999998
6.5 5.1500001 1
6.5 5.1500001 1.1
6.5 5.1500001 1.2
6.5 5.1500001 1.3
6.5 5.1500001 1.4
6.5 5.1500001 1.5
6.5 5.1500001 1.6
6.5 5.1500001 1.7
6.5 5.1500001 1.8
6.5 5.1500001 1.9
6.5 5.1500001 2
6.5 5.1500001 2.0999999
6.5 5.1500001 2.2
6.5 5.1500001 2.3
6.5 5.1500001 2.4000001
6.5 5.1500001 2.5
6.5 5.1500001 2.5999999
6.5 5.1500001 2.7
6.5 5.1500001 2.8
6.5 5.1500001 2.9000001
6.5 5.1500001 3
6.5 5.1500001 3.0999999
6.5 5.1500001 3.2
6.5 5.1500001 3.3
6.5 5.1500001 3.4000001
6.5999999 4.8499999 -0.5
6.5999999 4.8499999 -0.40000001
6.5999999 4.8499999 -0.30000001
6.5999999 4.8499999 -0.2
6.5999999 4.8499999 -0.1
6.5999999 4.8499999 -2.7755576e-17
6.5999999 4.8499999 0.1
6.5999999 4.8499999 0.2
6.5999999 4.8499999 0.30000001
6.5999999 4.8499999 0.40000001
6.5999999 4.8499999 0.5
6.5999999 4.8499999 0.60000002
6.5999999 4.8499999 0.69999999
6.5999999 4.8499999 0.80000001
6.5999999 4.8499999 0.89999998
6.5999999 4.8499999 1
6.5999999 4.8499999 1.1
6.5999999 4.8499999 1.2
6.5999999 4.8499999 1.3
6.5999999 4.8499999 1.4
6.5999999 4.8499999 1.5
6.5999999 4.8499999 1.6
6.5999999 4.8499999 1.7
6.5999999 4.8499999 1.8
6.5999999 4.8499999 1.9
6.5999999 4.8499999 2
6.5999999 4.8499999 2.0999999
6.5999999 4.8499999 2.2
6.5999999 4.8499999 2.3
6.5999999 4.8499999 2.4000001
6.5999999 4.8499999 2.5
6.5999999 4.8499999 2.5999999
6.5999999 4.8499999 2.7
6.5999999 4.8499999 2.8
6.5999999 4.8499999 2.9000001
6.5999999 4.8499999 3
6.5999999 4.8499999 3.0999999
6.5999999 4.8499999 3.2
6.5999999 4.8499999 3.3
6.5999999 4.8499999 3.4000001
6.5999999 4.9499998 -0.5
6.5999999 4.9499998 -0.40000001
6.5999999 4.9499998 -0.30000001
6.5999999 4.9499998 -0.2
6.5999999 4.9499998 -0.1
6.5999999 4.9499998 -2.7755576e-17
6.5999999 4.9499998 0.1
6.5999999 4.9499998 0.2
6.5999999 4.9499998 0.30000001
6.5999999 4.9499998 0.40000001
6.5999999 4.9499998 0.5
6.5999999 4.9499998 0.60000002
6.5999999 4.9499998 0.69999999
6.5999999 4.9499998 0.80000001
6.5999999 4.9499998 0.89999998
6.5999999 4.9499998 1
6.5999999 4.9499998 1.1
6.5999999 4.9499998 1.2
6.5999999 4.9499998 1.3
6.5999999 4.9499998 1.4
6.5999999 4.9499998 1.5
6.5999999 4.9499998 1.6
6.5999999 4.9499998 1.7
6.5999999 4.9499998 1.8
6.5999999 4.9499998 1.9
6.5999999 4.9499998 2
6.5999999 4.9499998 2.0999999
6.5999999 4.9499998 2.2
6.5999999 4.9499998 2.3
6.5999999 4.9499998 2.4000001
6.5999999 4.9499998 2.5
6.5999999 4.9499998 2.5999999
6.5999999 4.9499998 2.7
6.5999999 4.9499998 2.8
6.5999999 4.9499998 2.9000001
6.5999999 4.9499998 3
6.5999999 4.9499998 3.0999999
6.5999999 4.9499998 3.2
6.5999999 4.9499998 3.3
6.5999999 4.9499998 3.4000001
6.5999999 5.0500002 -0.5
6.5999999 5.0500002 -0.40000001
6.5999999 5.0500002 -0.30000001
6.5999999 5.0500002 -0.2
6.5999999 5.0500002 -0.1
6.5999999 5.0500002 -2.7755576e-17
6.5999999 5.0500002 0.1
6.5999999 5.0500002 0.2
6.5999999 5.0500002 0.30000001
6.5999999 5.0500002 0.40000001
6.5999999 5.0500002 0.5
6.5999999 5.0500002 0.60000002
6.5999999 5.0500002 0.69999999
6.5999999 5.0500002 0.80000001
6.5999999 5.0500002 0.89999998
6.5999999 5.0500002 1
6.5999999 5.0500002 1.1
6.5999999 5.0500002 1.2
6.5999999 5.0500002 1.3
6.5999999 5.0500002 1.4
6.5999999 5.0500002 1.5
6.5999999 5.0500002 1.6
6.5999999 5.0500002 1.7
6.5999999 5.0500002 1.8
6.5999999 5.0500002 1.9
6.5999999 5.0500002 2
6.5999999 5.0500002 2.0999999
6.5999999 5.0500002 2.2
6.5999999 5.0500002 2.3
6.5999999 5.0500002 2.4000001
6.5999999 5.0500002 2.5
6.5999999 5.0500002 2.5999999
6.5999999 5.0500002 2.7
6.5999999 5.0500002 2.8
6.5999999 5.0500002 2.9000001
6.5999999 5.0500002 3
6.5999999 5.0500002 3.0999999
6.5999999 5.0500002 3.2
6.5999999 5.0500002 3.3
6.5999999 5.0500002 3.4000001
6.5999999 5.1500001 -0.5
6.5999999 5.1500001 -0.40000001
6.5999999 5.1500001 -0.30000001
6.5999999 5.1500001 -0.2
6.5999999 5.1500001 -0.1
6.5999999 5.1500001 -2.7755576e-17
6.5999999 5.1500001 0.1
6.5999999 5.1500001 0.2
6.5999999 5.1500001 0.30000001
6.5999999 5.1500001 0.40000001
6.5999999 5.1500001 0.5
6.5999999 5.1500001 0.60000002
6.5999999 5.1500001 0.69999999
6.5999999 5.1500001 0.80000001
6.5999999 5.1500001 0.89999998
6.5999999 5.1500001 1
6.5999999 5.1500001 1.1
6.5999999 5.1500001 1.2
6.5999999 5.1500001 1.3
6.5999999 5.1500001 1.4
6.5999999 5.1500001 1.5
6.5999999 5.1500001 1.6
6.5999999 5.1500001 1.7
6.5999999 5.1500001 1.8
6.5999999 5.1500001 1.9
6.5999999 5.1500001 2
6.5999999 5.1500001 2.0999999
6.5999999 5.1500001 2.2
6.5999999 5.1500001 2.3
6.5999999 5.1500001 2.4000001
6.5999999 5.1500001 2.5
6.5999999 5.1500001 2.5999999
6.5999999 5.1500001 2.7
6.5999999 5.1500001 2.8
6.5999999 5.1500001 2.9000001
6.5999999 5.1500001 3
6.5999999 5.1500001 3.0999999
6.5999999 5.1500001 3.2
6.5999999 5.1500001 3.3
6.5999999 5.1500001 3.4000001
6.6999998 4.8499999 -0.5
6.6999998 4.8499999 -0.40000001
6.6999998 4.8499999 -0.30000001
6.6999998 4.8499999 -0.2
6.6999998 4.8499999 -0.1
6.6999998 4.8499999 -2.7755576e-17
6.6999998 4.8499999 0.1
6.6999998 4.8499999 0.2
6.6999998 4.8499999 0.30000001
6.6999998 4.8499999 0.40000001
6.6999998 4.8499999 0.5
6.6999998 4.8499999 0.60000002
6.6999998 4.8499999 0.69999999
6.6999998 4.8499999 0.80000001
6.6999998 4.8499999 0.89999998
6.6999998 4.8499999 1
6.6999998 4.8499999 1.1
6.6999998 4.8499999 1.2
6.6999998 4.8499999 1.3
6.6999998 4.8499999 1.4
6.6999998 4.8499999 1.5
6.6999998 4.8499999 1.6
6.6999998 4.8499999 1.7
6.6999998 4.8499999 1.8
6.6999998 4.8499999 1.9
6.6999998 4.8499999 2
6.6999998 4.8499999 2.0999999
6.6999998 4.8499999 2.2
6.6999998 4.8499999 2.3
6.6999998 4.8499999 2.4000001
6.6999998 4.8499999 2.5
6.6999998 4.8499999 2.5999999
6.6999998 4.8499999 2.7
6.6999998 4.8499999 2.8
6.6999998 4.8499999 2.9000001
6.6999998 4.8499999 3
6.6999998 4.8499999 3.0999999
6.6999998 4.8499999 3.2
6.6999998 4.8499999 3.3
6.6999998 4.8499999 3.4000001
6.6999998 4.9499998 -0.5
6.6999998 4.9499998 -0.40000001
6.6999998 4.9499998 -0.30000001
6.6999998 4.9499998 -0.2
6.6999998 4.9499998 -0.1
6.6999998 4.9499998 -2.7755576e-17
6.6999998 4.9499998 0.1
6.6999998 4.9499998 0.2
6.6999998 4.9499998 0.30000001
6.6999998 4.9499998 0.40000001
6.6999998 4.9499998 0.5
6.6999998 4.9499998 0.60000002
6.6999998 4.9499998 0.69999999
6.6999998 4.9499998 0.80000001
6.6999998 4.9499998 0.89999998
6.6999998 4.9499998 1
6.6999998 4.9499998 1.1
6.6999998 4.9499998 1.2
6.6999998 4.9499998 1.3
6.6999998 4.9499998 1.4
6.6999998 4.9499998 1.5
6.6999998 4.9499998 1.6
6.6999998 4.9499998 1.7
6.6999998 4.9499998 1.8
6.6999998 4.9499998 1.9
6.6999998 4.9499998 2
6.6999998 4.9499998 2.0999999
6.6999998 4.9499998 2.2
6.6999998 4.9499998 2.3
6.6999998 4.9499998 2.4000001
6.6999998 4.9499998 2.5
6.6999998 4.9499998 2.5999999
6.6999998 4.9499998 2.7
6.6999998 4.9499998 2.8
6.6999998 4.9499998 2.9000001
6.6999998 4.9499998 3
6.6999998 4.9499998 3.0999999
6.6999998 4.9499998 3.2
6.6999998 4.9499998 3.3
6.6999998 4.9499998 3.4000001
6.6999998 5.0500002 -0.5
6.6999998 5.0500002 -0.40000001
6.6999998 5.0500002 -0.30000001
6.6999998 5.0500002 -0.2
6.6999998 5.0500002 -0.1
6.6999998 5.0500002 -2.7755576e-17
6.6999998 5.0500002 0.1
6.6999998 5.0500002 0.2
6.6999998 5.0500002 0.30000001
6.6999998 5.0500002 0.40000001
6.6999998 5.0500002 0.5
6.6999998 5.0500002 0.60000002
6.6999998 5.0500002 0.69999999
6.6999998 5.0500002 0.80000001
6.6999998 5.0500002 0.89999998
6.6999998 5.0500002 1
6.6999998 5.0500002 1.1
6.6999998 5.0500002 1.2
6.6999998 5.0500002 1.3
6.6999998 5.0500002 1.4
6.6999998 5.0500002 1.5
6.6999998 5.0500002 1.6
6.6999998 5.0500002 1.7
6.6999998 5.0500002 1.8
6.6999998 5.0500002 1.9
6.6999998 5.0500002 2
6.6999998 5.0500002 2.0999999
6.6999998 5.0500002 2.2
6.6999998 5.0500002 2.3
6.6999998 5.0500002 2.4000001
6.6999998 5.0500002 2.5
6.6999998 5.0500002 2.5999999
6.6999998 5.0500002 2.7
6.6999998 5.0500002 2.8
6.6999998 5.0500002 2.9000001
6.6999998 5.0500002 3
6.6999998 5.0500002 3.0999999
6.6999998 5.0500002 3.2
6.6999998 5.0500002 3.3
6.6999998 5.0500002 3.4000001
6.6999998 5.1500001 -0.5
6.6999998 5.1500001 -0.40000001
6.6999998 5.1500001 -0.30000001
6.6999998 5.1500001 -0.2
6.6999998 5.1500001 -0.1
6.6999998 5.1500001 -2.7755576e-17
6.6999998 5.1500001 0.1
6.6999998 5.1500001 0.2
6.6999998 5.1500001 0.30000001
6.6999998 5.1500001 0.40000001
6.6999998 5.1500001 0.5
6.6999998 5.1500001 0.60000002
6.6999998 5.1500001 0.69999999
6.6999998 5.1500001 0.80000001
6.6999998 5.1500001 0.89999998
6.6999998 5.1500001 1
6.6999998 5.1500001 1.1
6.6999998 5.1500001 1.2
6.6999998 5.1500001 1.3
6.6999998 5.1500001 1.4
6.6999998 5.1500001 1.5
6.6999998 5.1500001 1.6
6.6999998 5.1500001 1.7
6.6999998 5.1500001 1.8
6.6999998 5.1500001 1.9
6.6999998 5.1500001 2
6.6999998 5.1500001 2.0999999
6.6999998 5.1500001 2.2
6.6999998 5.1500001 2.3
6.6999998 5.1500001 2.4000001
6.6999998 5.1500001 2.5
6.6999998 5.1500001 2.5999999
6.6999998 5.1500001 2.7
6.6999998 5.1500001 2.8
6.6999998 5.1500001 2.9000001
6.6999998 5.1500001 3
6.6999998 5.1500001 3.0999999
6.6999998 5.1500001 3.2
6.6999998 5.1500001 3.3
6.6999998 5.1500001 3.4000001
6.8000002 4.8499999 -0.5
6.8000002 4.8499999 -0.40000001
6.8000002 4.8499999 -0.30000001
6.8000002 4.8499999 -0.2
6.8000002 4.8499999 -0.1
6.8000002 4.8499999 -2.7755576e-17
6.8000002 4.8499999 0.1
6.8000002 4.8499999 0.2
6.8000002 4.8499999 0.30000001
6.8000002 4.8499999 0.40000001
6.8000002 4.8499999 0.5
6.8000002 4.8499999 0.60000002
6.8000002 4.8499999 0.69999999
6.8000002 4.8499999 0.80000001
6.8000002 4.8499999 0.89999998
6.8000002 4.8499999 1
6.8000002 4.8499999 1.1
6.8000002 4.8499999 1.2
6.8000002 4.8499999 1.3
6.8000002 4.8499999 1.4
6.8000002 4.8499999 1.5
6.8000002 4.8499999 1.6
6.8000002 4.8499999 1.7
6.8000002 4.8499999 1.8
6.8000002 4.8499999 1.9
6.8000002 4.8499999 2
6.8000002 4.8499999 2.0999999
6.8000002 4.8499999 2.2
6.8000002 4.8499999 2.3
6.8000002 4.8499999 2.4000001
6.8000002 4.8499999 2.5
6.8000002 4.8499999 2.5999999
6.8000002 4.8499999 2.7
6.8000002 4.8499999 2.8
6.8000002 4.8499999 2.9000001
6.8000002 4.8499999 3
6.8000002 4.8499999 3.0999999
6.8000002 4.8499999 3.2
6.8000002 4.8499999 3.3
6.8000002 4.8499999 3.4000001
6.8000002 4.9499998 -0.5
6.8000002 4.9499998 -0.40000001
6.8000002 4.9499998 -0.30000001
6.8000002 4.9499998 -0.2
6.8000002 4.9499998 -0.1
6.8000002 4.9499998 -2.7755576e-17
6.8000002 4.9499998 0.1
6.8000002 4.9499998 0.2
6.8000002 4.9499998 0.30000001
6.8000002 4.9499998 0.40000001
6.8000002 4.9499998 0.5
6.8000002 4.9499998 0.60000002
6.8000002 4.9499998 0.69999999
6.8000002 4.9499998 0.80000001
6.8000002 4.9499998 0.89999998
6.8000002 4.9499998 1
6.8000002 4.9499998 1.1
6.8000002 4.9499998 1.2
6.8000002 4.9499998 1.3
6.8000002 4.9499998 1.4
6.8000002 4.9499998 1.5
6.8000002 4.9499998 1.6
6.8000002 4.9499998 1.7
6.8000002 4.9499998 1.8
6.8000002 4.9499998 1.9
6.8000002 4.9499998 2
6.8000002 4.9499998 2.0999999
6.8000002 4.9499998 2.2
6.8000002 4.9499998 2.3
6.8000002 4.9499998 2.4000001
6.8000002 4.9499998 2.5
6.8000002 4.9499998 2.5999999
6.8000002 4.9499998 2.7
6.8000002 4.9499998 2.8
6.8000002 4.9499998 2.9000001
6.8000002 4.9499998 3
6.8000002 4.9499998 3.0999999
6.8000002 4.9499998 3.2
