# .PCD v0.7 - Point Cloud Data file format
VERSION 0.7
FIELDS x y z
SIZE 4 4 4
TYPE F F F
COUNT 1 1 1
WIDTH 1717
HEIGHT 1
VIEWPOINT 0 0 0 1 0 0 0
POINTS 1717
DATA ascii
10.977815 -0.50036258 0.30000001
10.977815 -0.50036258 0.40000001
10.977815 -0.50036258 0.5
10.977815 -0.50036258 0.60000002
10.977815 -0.50036258 0.69999999
10.977815 -0.50036258 0.80000001
10.977815 -0.50036258 0.89999998
10.977815 -0.50036258 1
10.977815 -0.50036258 1.1
10.977815 -0.50036258 1.2
10.977815 -0.50036258 1.3
10.977815 -0.50036258 1.4
10.977815 -0.50036258 1.5
10.977815 -0.50036258 1.6
10.977815 -0.50036258 1.7
10.977815 -0.50036258 1.8
10.977815 -0.50036258 1.9
10.977815 -0.50036258 2
10.977815 -0.50036258 2.0999999
10.977815 -0.50036258 2.2
10.977815 -0.50036258 2.3
10.977815 -0.50036258 2.4000001
10.977815 -0.50036258 2.5
10.977815 -0.50036258 2.5999999
10.977815 -0.50036258 2.7
10.977815 -0.50036258 2.8
10.977815 -0.50036258 2.9000001
10.977815 -0.50036258 3
10.977815 -0.50036258 3.0999999
10.977815 -0.50036258 3.2
10.977815 -0.50036258 3.3
10.977815 -0.50036258 3.4000001
11.077609 -0.50677758 -0.5
11.077609 -0.50677758 -0.40000001
11.077609 -0.50677758 -0.30000001
11.077609 -0.50677758 -0.2
11.077609 -0.50677758 -0.1
11.077609 -0.50677758 -2.7755576e-17
11.077609 -0.50677758 0.1
11.077609 -0.50677758 0.2
11.077609 -0.50677758 0.30000001
11.077609 -0.50677758 0.40000001
11.077609 -0.50677758 0.5
11.077609 -0.50677758 0.60000002
11.077609 -0.50677758 0.69999999
11.077609 -0.50677758 0.80000001
11.077609 -0.50677758 0.89999998
11.077609 -0.50677758 1
11.077609 -0.50677758 1.1
11.077609 -0.50677758 1.2
11.077609 -0.50677758 1.3
11.077609 -0.50677758 1.4
11.077609 -0.50677758 1.5
11.077609 -0.50677758 1.6
11.077609 -0.50677758 1.7
11.077609 -0.50677758 1.8
11.077609 -0.50677758 1.9
11.077609 -0.50677758 2
11.077609 -0.50677758 2.0999999
11.077609 -0.50677758 2.2
11.077609 -0.50677758 2.3
11.077609 -0.50677758 2.4000001
11.077609 -0.50677758 2.5
11.077609 -0.50677758 2.5999999
11.077609 -0.50677758 2.7
11.077609 -0.50677758 2.8
11.077609 -0.50677758 2.9000001
11.077609 -0.50677758 3
11.077609 -0.50677758 3.0999999
11.077609 -0.50677758 3.2
11.077609 -0.50677758 3.3
11.077609 -0.50677758 3.4000001
11.177403 -0.51319259 -0.5
11.177403 -0.51319259 -0.40000001
11.177403 -0.51319259 -0.30000001
11.177403 -0.51319259 -0.2
11.177403 -0.51319259 -0.1
11.177403 -0.51319259 -2.7755576e-17
11.177403 -0.51319259 0.1
11.177403 -0.51319259 0.2
11.177403 -0.51319259 0.30000001
11.177403 -0.51319259 0.40000001
11.177403 -0.51319259 0.5
11.177403 -0.51319259 0.60000002
11.177403 -0.51319259 0.69999999
11.177403 -0.51319259 0.80000001
11.177403 -0.51319259 0.89999998
11.177403 -0.51319259 1
11.177403 -0.51319259 1.1
11.177403 -0.51319259 1.2
11.177403 -0.51319259 1.3
11.177403 -0.51319259 1.4
11.177403 -0.51319259 1.5
11.177403 -0.51319259 1.6
11.177403 -0.51319259 1.7
11.177403 -0.51319259 1.8
11.177403 -0.51319259 1.9
11.177403 -0.51319259 2
11.177403 -0.51319259 2.0999999
11.177403 -0.51319259 2.2
11.177403 -0.51319259 2.3
11.177403 -0.51319259 2.4000001
11.177403 -0.51319259 2.5
11.177403 -0.51319259 2.5999999
11.177403 -0.51319259 2.7
11.177403 -0.51319259 2.8
11.177403 -0.51319259 2.9000001
11.177403 -0.51319259 3
11.177403 -0.51319259 3.0999999
11.177403 -0.51319259 3.2
11.177403 -0.51319259 3.3
11.177403 -0.51319259 3.4000001
10.871606 -0.5937416 -0.5
10.871606 -0.5937416 -0.40000001
10.871606 -0.5937416 -0.30000001
10.871606 -0.5937416 -0.2
10.871606 -0.5937416 -0.1
10.871606 -0.5937416 -2.7755576e-17
10.871606 -0.5937416 0.1
10.871606 -0.5937416 0.2
10.871606 -0.5937416 0.30000001
10.871606 -0.5937416 0.40000001
10.871606 -0.5937416 0.5
10.871606 -0.5937416 0.60000002
10.871606 -0.5937416 0.69999999
10.871606 -0.5937416 0.80000001
10.871606 -0.5937416 0.89999998
10.871606 -0.5937416 1
10.871606 -0.5937416 1.1
10.871606 -0.5937416 1.2
10.871606 -0.5937416 1.3
10.871606 -0.5937416 1.4
10.871606 -0.5937416 1.5
10.871606 -0.5937416 1.6
10.871606 -0.5937416 1.7
10.871606 -0.5937416 1.8
10.871606 -0.5937416 1.9
10.871606 -0.5937416 2
10.871606 -0.5937416 2.0999999
10.871606 -0.5937416 2.2
10.871606 -0.5937416 2.3
10.871606 -0.5937416 2.4000001
10.871606 -0.5937416 2.5
10.871606 -0.5937416 2.5999999
10.871606 -0.5937416 2.7
10.871606 -0.5937416 2.8
10.871606 -0.5937416 2.9000001
10.871606 -0.5937416 3
10.871606 -0.5937416 3.0999999
10.871606 -0.5937416 3.2
10.871606 -0.5937416 3.3
10.871606 -0.5937416 3.4000001
10.9714 -0.60015661 -0.5
10.9714 -0.60015661 -0.40000001
10.9714 -0.60015661 -0.30000001
10.9714 -0.60015661 -0.2
10.9714 -0.60015661 -0.1
10.9714 -0.60015661 -2.7755576e-17
10.9714 -0.60015661 0.1
10.9714 -0.60015661 0.2
10.9714 -0.60015661 0.30000001
10.9714 -0.60015661 0.40000001
10.9714 -0.60015661 0.5
10.9714 -0.60015661 0.60000002
10.9714 -0.60015661 0.69999999
10.9714 -0.60015661 0.80000001
10.9714 -0.60015661 0.89999998
10.9714 -0.60015661 1
10.9714 -0.60015661 1.1
10.9714 -0.60015661 1.2
10.9714 -0.60015661 1.3
10.9714 -0.60015661 1.4
10.9714 -0.60015661 1.5
10.9714 -0.60015661 1.6
10.9714 -0.60015661 1.7
10.9714 -0.60015661 1.8
10.9714 -0.60015661 1.9
10.9714 -0.60015661 2
10.9714 -0.60015661 2.0999999
10.9714 -0.60015661 2.2
10.9714 -0.60015661 2.3
10.9714 -0.60015661 2.4000001
10.9714 -0.60015661 2.5
10.9714 -0.60015661 2.5999999
10.9714 -0.60015661 2.7
10.9714 -0.60015661 2.8
10.9714 -0.60015661 2.9000001
10.9714 -0.60015661 3
10.9714 -0.60015661 3.0999999
10.9714 -0.60015661 3.2
10.9714 -0.60015661 3.3
10.9714 -0.60015661 3.4000001
11.071194 -0.60657161 -0.5
11.071194 -0.60657161 -0.40000001
11.071194 -0.60657161 -0.30000001
11.071194 -0.60657161 -0.2
11.071194 -0.60657161 -0.1
11.071194 -0.60657161 -2.7755576e-17
11.071194 -0.60657161 0.1
11.071194 -0.60657161 0.2
11.071194 -0.60657161 0.30000001
11.071194 -0.60657161 0.40000001
11.071194 -0.60657161 0.5
11.071194 -0.60657161 0.60000002
11.071194 -0.60657161 0.69999999
11.071194 -0.60657161 0.80000001
11.071194 -0.60657161 0.89999998
11.071194 -0.60657161 1
11.071194 -0.60657161 1.1
11.071194 -0.60657161 1.2
11.071194 -0.60657161 1.3
11.071194 -0.60657161 1.4
11.071194 -0.60657161 1.5
11.071194 -0.60657161 1.6
11.071194 -0.60657161 1.7
11.071194 -0.60657161 1.8
11.071194 -0.60657161 1.9
11.071194 -0.60657161 2
11.071194 -0.60657161 2.0999999
11.071194 -0.60657161 2.2
11.071194 -0.60657161 2.3
11.071194 -0.60657161 2.4000001
11.071194 -0.60657161 2.5
11.071194 -0.60657161 2.5999999
11.071194 -0.60657161 2.7
11.071194 -0.60657161 2.8
11.071194 -0.60657161 2.9000001
11.071194 -0.60657161 3
11.071194 -0.60657161 3.0999999
11.071194 -0.60657161 3.2
11.071194 -0.60657161 3.3
11.071194 -0.60657161 3.4000001
11.170988 -0.61298656 -0.5
11.170988 -0.61298656 -0.40000001
11.170988 -0.61298656 -0.30000001
11.170988 -0.61298656 -0.2
11.170988 -0.61298656 -0.1
11.170988 -0.61298656 -2.7755576e-17
11.170988 -0.61298656 0.1
11.170988 -0.61298656 0.2
11.170988 -0.61298656 0.30000001
11.170988 -0.61298656 0.40000001
11.170988 -0.61298656 0.5
11.170988 -0.61298656 0.60000002
11.170988 -0.61298656 0.69999999
11.170988 -0.61298656 0.80000001
11.170988 -0.61298656 0.89999998
11.170988 -0.61298656 1
11.170988 -0.61298656 1.1
11.170988 -0.61298656 1.2
11.170988 -0.61298656 1.3
11.170988 -0.61298656 1.4
11.170988 -0.61298656 1.5
11.170988 -0.61298656 1.6
11.170988 -0.61298656 1.7
11.170988 -0.61298656 1.8
11.170988 -0.61298656 1.9
11.170988 -0.61298656 2
11.170988 -0.61298656 2.0999999
11.170988 -0.61298656 2.2
11.170988 -0.61298656 2.3
11.170988 -0.61298656 2.4000001
11.170988 -0.61298656 2.5
11.170988 -0.61298656 2.5999999
11.170988 -0.61298656 2.7
11.170988 -0.61298656 2.8
11.170988 -0.61298656 2.9000001
11.170988 -0.61298656 3
11.170988 -0.61298656 3.0999999
11.170988 -0.61298656 3.2
11.170988 -0.61298656 3.3
11.170988 -0.61298656 3.4000001
10.865191 -0.69353563 -0.5
10.865191 -0.69353563 -0.40000001
10.865191 -0.69353563 -0.30000001
10.865191 -0.69353563 -0.2
10.865191 -0.69353563 -0.1
10.865191 -0.69353563 -2.7755576e-17
10.865191 -0.69353563 0.1
10.865191 -0.69353563 0.2
10.865191 -0.69353563 0.30000001
10.865191 -0.69353563 0.40000001
10.865191 -0.69353563 0.5
10.865191 -0.69353563 0.60000002
10.865191 -0.69353563 0.69999999
10.865191 -0.69353563 0.80000001
10.865191 -0.69353563 0.89999998
10.865191 -0.69353563 1
10.865191 -0.69353563 1.1
10.865191 -0.69353563 1.2
10.865191 -0.69353563 1.3
10.865191 -0.69353563 1.4
10.865191 -0.69353563 1.5
10.865191 -0.69353563 1.6
10.865191 -0.69353563 1.7
10.865191 -0.69353563 1.8
10.865191 -0.69353563 1.9
10.865191 -0.69353563 2
10.865191 -0.69353563 2.0999999
10.865191 -0.69353563 2.2
10.865191 -0.69353563 2.3
10.865191 -0.69353563 2.4000001
10.865191 -0.69353563 2.5
10.865191 -0.69353563 2.5999999
10.865191 -0.69353563 2.7
10.865191 -0.69353563 2.8
10.865191 -0.69353563 2.9000001
10.865191 -0.69353563 3
10.865191 -0.69353563 3.0999999
10.865191 -0.69353563 3.2
10.865191 -0.69353563 3.3
10.865191 -0.69353563 3.4000001
10.964985 -0.69995064 -0.5
10.964985 -0.69995064 -0.40000001
10.964985 -0.69995064 -0.30000001
10.964985 -0.69995064 -0.2
10.964985 -0.69995064 -0.1
10.964985 -0.69995064 -2.7755576e-17
10.964985 -0.69995064 0.1
10.964985 -0.69995064 0.2
10.964985 -0.69995064 0.30000001
10.964985 -0.69995064 0.40000001
10.964985 -0.69995064 0.5
10.964985 -0.69995064 0.60000002
10.964985 -0.69995064 0.69999999
10.964985 -0.69995064 0.80000001
10.964985 -0.69995064 0.89999998
10.964985 -0.69995064 1
10.964985 -0.69995064 1.1
10.964985 -0.69995064 1.2
10.964985 -0.69995064 1.3
10.964985 -0.69995064 1.4
10.964985 -0.69995064 1.5
10.964985 -0.69995064 1.6
10.964985 -0.69995064 1.7
10.964985 -0.69995064 1.8
10.964985 -0.69995064 1.9
10.964985 -0.69995064 2
10.964985 -0.69995064 2.0999999
10.964985 -0.69995064 2.2
10.964985 -0.69995064 2.3
10.964985 -0.69995064 2.4000001
10.964985 -0.69995064 2.5
10.964985 -0.69995064 2.5999999
10.964985 -0.69995064 2.7
10.964985 -0.69995064 2.8
10.964985 -0.69995064 2.9000001
10.964985 -0.69995064 3
10.964985 -0.69995064 3.0999999
10.964985 -0.69995064 3.2
10.964985 -0.69995064 3.3
10.964985 -0.69995064 3.4000001
11.064779 -0.70636564 -0.5
11.064779 -0.70636564 -0.40000001
11.064779 -0.70636564 -0.30000001
11.064779 -0.70636564 -0.2
11.064779 -0.70636564 -0.1
11.064779 -0.70636564 -2.7755576e-17
11.064779 -0.70636564 0.1
11.064779 -0.70636564 0.2
11.064779 -0.70636564 0.30000001
11.064779 -0.70636564 0.40000001
11.064779 -0.70636564 0.5
11.064779 -0.70636564 0.60000002
11.064779 -0.70636564 0.69999999
11.064779 -0.70636564 0.80000001
11.064779 -0.70636564 0.89999998
11.064779 -0.70636564 1
11.064779 -0.70636564 1.1
11.064779 -0.70636564 1.2
11.064779 -0.70636564 1.3
11.064779 -0.70636564 1.4
11.064779 -0.70636564 1.5
11.064779 -0.70636564 1.6
11.064779 -0.70636564 1.7
11.064779 -0.70636564 1.8
11.064779 -0.70636564 1.9
11.064779 -0.70636564 2
11.064779 -0.70636564 2.0999999
11.064779 -0.70636564 2.2
11.064779 -0.70636564 2.3
11.064779 -0.70636564 2.4000001
11.064779 -0.70636564 2.5
11.064779 -0.70636564 2.5999999
11.064779 -0.70636564 2.7
11.064779 -0.70636564 2.8
11.064779 -0.70636564 2.9000001
11.064779 -0.70636564 3
11.064779 -0.70636564 3.0999999
11.064779 -0.70636564 3.2
11.064779 -0.70636564 3.3
11.064779 -0.70636564 3.4000001
11.164573 -0.71278059 -0.5
11.164573 -0.71278059 -0.40000001
11.164573 -0.71278059 -0.30000001
11.164573 -0.71278059 -0.2
11.164573 -0.71278059 -0.1
11.164573 -0.71278059 -2.7755576e-17
11.164573 -0.71278059 0.1
11.164573 -0.71278059 0.2
11.164573 -0.71278059 0.30000001
11.164573 -0.71278059 0.40000001
11.164573 -0.71278059 0.5
11.164573 -0.71278059 0.60000002
11.164573 -0.71278059 0.69999999
11.164573 -0.71278059 0.80000001
11.164573 -0.71278059 0.89999998
11.164573 -0.71278059 1
11.164573 -0.71278059 1.1
11.164573 -0.71278059 1.2
11.164573 -0.71278059 1.3
11.164573 -0.71278059 1.4
11.164573 -0.71278059 1.5
11.164573 -0.71278059 1.6
11.164573 -0.71278059 1.7
11.164573 -0.71278059 1.8
11.164573 -0.71278059 1.9
11.164573 -0.71278059 2
11.164573 -0.71278059 2.0999999
11.164573 -0.71278059 2.2
11.164573 -0.71278059 2.3
11.164573 -0.71278059 2.4000001
11.164573 -0.71278059 2.5
11.164573 -0.71278059 2.5999999
11.164573 -0.71278059 2.7
11.164573 -0.71278059 2.8
11.164573 -0.71278059 2.9000001
11.164573 -0.71278059 3
11.164573 -0.71278059 3.0999999
11.164573 -0.71278059 3.2
11.164573 -0.71278059 3.3
11.164573 -0.71278059 3.4000001
10.858776 -0.79332966 -0.5
10.858776 -0.79332966 -0.40000001
10.858776 -0.79332966 -0.30000001
10.858776 -0.79332966 -0.2
10.858776 -0.79332966 -0.1
10.858776 -0.79332966 -2.7755576e-17
10.858776 -0.79332966 0.1
10.858776 -0.79332966 0.2
10.858776 -0.79332966 0.30000001
10.858776 -0.79332966 0.40000001
10.858776 -0.79332966 0.5
10.858776 -0.79332966 0.60000002
10.858776 -0.79332966 0.69999999
10.858776 -0.79332966 0.80000001
10.858776 -0.79332966 0.89999998
10.858776 -0.79332966 1
10.858776 -0.79332966 1.1
10.858776 -0.79332966 1.2
10.858776 -0.79332966 1.3
10.858776 -0.79332966 1.4
10.858776 -0.79332966 1.5
10.858776 -0.79332966 1.6
10.858776 -0.79332966 1.7
10.858776 -0.79332966 1.8
10.858776 -0.79332966 1.9
10.858776 -0.79332966 2
10.858776 -0.79332966 2.0999999
10.858776 -0.79332966 2.2
10.858776 -0.79332966 2.3
10.858776 -0.79332966 2.4000001
10.858776 -0.79332966 2.5
10.858776 -0.79332966 2.5999999
10.858776 -0.79332966 2.7
10.858776 -0.79332966 2.8
10.858776 -0.79332966 2.9000001
10.858776 -0.79332966 3
10.858776 -0.79332966 3.0999999
10.858776 -0.79332966 3.2
10.858776 -0.79332966 3.3
10.858776 -0.79332966 3.4000001
10.95857 -0.79974467 -0.5
10.95857 -0.79974467 -0.40000001
10.95857 -0.79974467 -0.30000001
10.95857 -0.79974467 -0.2
10.95857 -0.79974467 -0.1
10.95857 -0.79974467 -2.7755576e-17
10.95857 -0.79974467 0.1
10.95857 -0.79974467 0.2
10.95857 -0.79974467 0.30000001
10.95857 -0.79974467 0.40000001
10.95857 -0.79974467 0.5
10.95857 -0.79974467 0.60000002
10.95857 -0.79974467 0.69999999
10.95857 -0.79974467 0.80000001
10.95857 -0.79974467 0.89999998
10.95857 -0.79974467 1
10.95857 -0.79974467 1.1
10.95857 -0.79974467 1.2
10.95857 -0.79974467 1.3
10.95857 -0.79974467 1.4
10.95857 -0.79974467 1.5
10.95857 -0.79974467 1.6
10.95857 -0.79974467 1.7
10.95857 -0.79974467 1.8
10.95857 -0.79974467 1.9
10.95857 -0.79974467 2
10.95857 -0.79974467 2.0999999
10.95857 -0.79974467 2.2
10.95857 -0.79974467 2.3
10.95857 -0.79974467 2.4000001
10.95857 -0.79974467 2.5
10.95857 -0.79974467 2.5999999
10.95857 -0.79974467 2.7
10.95857 -0.79974467 2.8
10.95857 -0.79974467 2.9000001
10.95857 -0.79974467 3
10.95857 -0.79974467 3.0999999
10.95857 -0.79974467 3.2
10.95857 -0.79974467 3.3
10.95857 -0.79974467 3.4000001
11.058364 -0.80615968 -0.5
11.058364 -0.80615968 -0.40000001
11.058364 -0.80615968 -0.30000001
11.058364 -0.80615968 -0.2
11.058364 -0.80615968 -0.1
11.058364 -0.80615968 -2.7755576e-17
11.058364 -0.80615968 0.1
11.058364 -0.80615968 0.2
11.058364 -0.80615968 0.30000001
11.058364 -0.80615968 0.40000001
11.058364 -0.80615968 0.5
11.058364 -0.80615968 0.60000002
11.058364 -0.80615968 0.69999999
11.058364 -0.80615968 0.80000001
11.058364 -0.80615968 0.89999998
11.058364 -0.80615968 1
11.058364 -0.80615968 1.1
11.058364 -0.80615968 1.2
11.058364 -0.80615968 1.3
11.058364 -0.80615968 1.4
11.058364 -0.80615968 1.5
11.058364 -0.80615968 1.6
11.058364 -0.80615968 1.7
11.058364 -0.80615968 1.8
11.058364 -0.80615968 1.9
11.058364 -0.80615968 2
11.058364 -0.80615968 2.0999999
11.058364 -0.80615968 2.2
11.058364 -0.80615968 2.3
11.058364 -0.80615968 2.4000001
11.058364 -0.80615968 2.5
11.058364 -0.80615968 2.5999999
11.058364 -0.80615968 2.7
11.058364 -0.80615968 2.8
11.058364 -0.80615968 2.9000001
11.058364 -0.80615968 3
11.058364 -0.80615968 3.0999999
11.058364 -0.80615968 3.2
11.058364 -0.80615968 3.3
11.058364 -0.80615968 3.4000001
11.158158 -0.81257463 -0.5
11.158158 -0.81257463 -0.40000001
11.158158 -0.81257463 -0.30000001
11.158158 -0.81257463 -0.2
11.158158 -0.81257463 -0.1
11.158158 -0.81257463 -2.7755576e-17
11.158158 -0.81257463 0.1
11.158158 -0.81257463 0.2
11.158158 -0.81257463 0.30000001
11.158158 -0.81257463 0.40000001
11.158158 -0.81257463 0.5
11.158158 -0.81257463 0.60000002
11.158158 -0.81257463 0.69999999
11.158158 -0.81257463 0.80000001
11.158158 -0.81257463 0.89999998
11.158158 -0.81257463 1
11.158158 -0.81257463 1.1
11.158158 -0.81257463 1.2
11.158158 -0.81257463 1.3
11.158158 -0.81257463 1.4
11.158158 -0.81257463 1.5
11.158158 -0.81257463 1.6
11.158158 -0.81257463 1.7
11.158158 -0.81257463 1.8
11.158158 -0.81257463 1.9
11.158158 -0.81257463 2
11.158158 -0.81257463 2.0999999
11.158158 -0.81257463 2.2
11.158158 -0.81257463 2.3
11.158158 -0.81257463 2.4000001
11.158158 -0.81257463 2.5
11.158158 -0.81257463 2.5999999
11.158158 -0.81257463 2.7
11.158158 -0.81257463 2.8
11.158158 -0.81257463 2.9000001
11.158158 -0.81257463 3
11.158158 -0.81257463 3.0999999
11.158158 -0.81257463 3.2
11.158158 -0.81257463 3.3
11.158158 -0.81257463 3.4000001
10.852361 -0.89312369 -0.5
10.852361 -0.89312369 -0.40000001
10.852361 -0.89312369 -0.30000001
10.852361 -0.89312369 -0.2
10.852361 -0.89312369 -0.1
10.852361 -0.89312369 -2.7755576e-17
10.852361 -0.89312369 0.1
10.852361 -0.89312369 0.2
10.852361 -0.89312369 0.30000001
10.852361 -0.89312369 0.40000001
10.852361 -0.89312369 0.5
10.852361 -0.89312369 0.60000002
10.852361 -0.89312369 0.69999999
10.852361 -0.89312369 0.80000001
10.852361 -0.89312369 0.89999998
10.852361 -0.89312369 1
10.852361 -0.89312369 1.1
10.852361 -0.89312369 1.2
10.852361 -0.89312369 1.3
10.852361 -0.89312369 1.4
10.852361 -0.89312369 1.5
10.852361 -0.89312369 1.6
10.852361 -0.89312369 1.7
10.852361 -0.89312369 1.8
10.852361 -0.89312369 1.9
10.852361 -0.89312369 2
10.852361 -0.89312369 2.0999999
10.852361 -0.89312369 2.2
10.852361 -0.89312369 2.3
10.852361 -0.89312369 2.4000001
10.852361 -0.89312369 2.5
10.852361 -0.89312369 2.5999999
10.852361 -0.89312369 2.7
10.852361 -0.89312369 2.8
10.852361 -0.89312369 2.9000001
10.852361 -0.89312369 3
10.852361 -0.89312369 3.0999999
10.852361 -0.89312369 3.2
10.852361 -0.89312369 3.3
10.852361 -0.89312369 3.4000001
10.952155 -0.8995387 -0.5
10.952155 -0.8995387 -0.40000001
10.952155 -0.8995387 -0.30000001
10.952155 -0.8995387 -0.2
10.952155 -0.8995387 -0.1
10.952155 -0.8995387 -2.7755576e-17
10.952155 -0.8995387 0.1
10.952155 -0.8995387 0.2
10.952155 -0.8995387 0.30000001
10.952155 -0.8995387 0.40000001
10.952155 -0.8995387 0.5
10.952155 -0.8995387 0.60000002
10.952155 -0.8995387 0.69999999
10.952155 -0.8995387 0.80000001
10.952155 -0.8995387 0.89999998
10.952155 -0.8995387 1
10.952155 -0.8995387 1.1
10.952155 -0.8995387 1.2
10.952155 -0.8995387 1.3
10.952155 -0.8995387 1.4
10.952155 -0.8995387 1.5
10.952155 -0.8995387 1.6
10.952155 -0.8995387 1.7
10.952155 -0.8995387 1.8
10.952155 -0.8995387 1.9
10.952155 -0.8995387 2
10.952155 -0.8995387 2.0999999
10.952155 -0.8995387 2.2
10.952155 -0.8995387 2.3
10.952155 -0.8995387 2.4000001
10.952155 -0.8995387 2.5
10.952155 -0.8995387 2.5999999
10.952155 -0.8995387 2.7
10.952155 -0.8995387 2.8
10.952155 -0.8995387 2.9000001
10.952155 -0.8995387 3
10.952155 -0.8995387 3.0999999
10.952155 -0.8995387 3.2
10.952155 -0.8995387 3.3
10.952155 -0.8995387 3.4000001
11.051949 -0.90595371 -0.5
11.051949 -0.90595371 -0.40000001
11.051949 -0.90595371 -0.30000001
11.051949 -0.90595371 -0.2
11.051949 -0.90595371 -0.1
11.051949 -0.90595371 -2.7755576e-17
11.051949 -0.90595371 0.1
11.051949 -0.90595371 0.2
11.051949 -0.90595371 0.30000001
11.051949 -0.90595371 0.40000001
11.051949 -0.90595371 0.5
11.051949 -0.90595371 0.60000002
11.051949 -0.90595371 0.69999999
11.051949 -0.90595371 0.80000001
11.051949 -0.90595371 0.89999998
11.051949 -0.90595371 1
11.051949 -0.90595371 1.1
11.051949 -0.90595371 1.2
11.051949 -0.90595371 1.3
11.051949 -0.90595371 1.4
11.051949 -0.90595371 1.5
11.051949 -0.90595371 1.6
11.051949 -0.90595371 1.7
11.051949 -0.90595371 1.8
11.051949 -0.90595371 1.9
11.051949 -0.90595371 2
11.051949 -0.90595371 2.0999999
11.051949 -0.90595371 2.2
11.051949 -0.90595371 2.3
11.051949 -0.90595371 2.4000001
11.051949 -0.90595371 2.5
11.051949 -0.90595371 2.5999999
11.051949 -0.90595371 2.7
11.051949 -0.90595371 2.8
11.051949 -0.90595371 2.9000001
11.051949 -0.90595371 3
11.051949 -0.90595371 3.0999999
11.051949 -0.90595371 3.2
11.051949 -0.90595371 3.3
11.051949 -0.90595371 3.4000001
11.151743 -0.91236866 -0.5
11.151743 -0.91236866 -0.40000001
11.151743 -0.91236866 -0.30000001
11.151743 -0.91236866 -0.2
11.151743 -0.91236866 -0.1
11.151743 -0.91236866 -2.7755576e-17
11.151743 -0.91236866 0.1
11.151743 -0.91236866 0.2
11.151743 -0.91236866 0.30000001
11.151743 -0.91236866 0.40000001
11.151743 -0.91236866 0.5
11.151743 -0.91236866 0.60000002
11.151743 -0.91236866 0.69999999
11.151743 -0.91236866 0.80000001
11.151743 -0.91236866 0.89999998
11.151743 -0.91236866 1
11.151743 -0.91236866 1.1
11.151743 -0.91236866 1.2
11.151743 -0.91236866 1.3
11.151743 -0.91236866 1.4
11.151743 -0.91236866 1.5
11.151743 -0.91236866 1.6
11.151743 -0.91236866 1.7
11.151743 -0.91236866 1.8
11.151743 -0.91236866 1.9
11.151743 -0.91236866 2
11.151743 -0.91236866 2.0999999
11.151743 -0.91236866 2.2
11.151743 -0.91236866 2.3
11.151743 -0.91236866 2.4000001
11.151743 -0.91236866 2.5
11.151743 -0.91236866 2.5999999
11.151743 -0.91236866 2.7
11.151743 -0.91236866 2.8
11.151743 -0.91236866 2.9000001
11.151743 -0.91236866 3
11.151743 -0.91236866 3.0999999
11.151743 -0.91236866 3.2
11.151743 -0.91236866 3.3
11.151743 -0.91236866 3.4000001
10.845946 -0.99291772 -0.5
10.845946 -0.99291772 -0.40000001
10.845946 -0.99291772 -0.30000001
10.845946 -0.99291772 -0.2
10.845946 -0.99291772 -0.1
10.845946 -0.99291772 -2.7755576e-17
10.845946 -0.99291772 0.1
10.845946 -0.99291772 0.2
10.845946 -0.99291772 0.30000001
10.845946 -0.99291772 0.40000001
10.845946 -0.99291772 0.5
10.845946 -0.99291772 0.60000002
10.845946 -0.99291772 0.69999999
10.845946 -0.99291772 0.80000001
10.845946 -0.99291772 0.89999998
10.845946 -0.99291772 1
10.845946 -0.99291772 1.1
10.845946 -0.99291772 1.2
10.845946 -0.99291772 1.3
10.845946 -0.99291772 1.4
10.845946 -0.99291772 1.5
10.845946 -0.99291772 1.6
10.845946 -0.99291772 1.7
10.845946 -0.99291772 1.8
10.845946 -0.99291772 1.9
10.845946 -0.99291772 2
10.845946 -0.99291772 2.0999999
10.845946 -0.99291772 2.2
10.845946 -0.99291772 2.3
10.845946 -0.99291772 2.4000001
10.845946 -0.99291772 2.5
10.845946 -0.99291772 2.5999999
10.845946 -0.99291772 2.7
10.845946 -0.99291772 2.8
10.845946 -0.99291772 2.9000001
10.845946 -0.99291772 3
10.845946 -0.99291772 3.0999999
10.845946 -0.99291772 3.2
10.845946 -0.99291772 3.3
10.845946 -0.99291772 3.4000001
10.94574 -0.99933273 -0.5
10.94574 -0.99933273 -0.40000001
10.94574 -0.99933273 -0.30000001
10.94574 -0.99933273 -0.2
10.94574 -0.99933273 -0.1
10.94574 -0.99933273 -2.7755576e-17
10.94574 -0.99933273 0.1
10.94574 -0.99933273 0.2
10.94574 -0.99933273 0.30000001
10.94574 -0.99933273 0.40000001
10.94574 -0.99933273 0.5
10.94574 -0.99933273 0.60000002
10.94574 -0.99933273 0.69999999
10.94574 -0.99933273 0.80000001
10.94574 -0.99933273 0.89999998
10.94574 -0.99933273 1
10.94574 -0.99933273 1.1
10.94574 -0.99933273 1.2
10.94574 -0.99933273 1.3
10.94574 -0.99933273 1.4
10.94574 -0.99933273 1.5
10.94574 -0.99933273 1.6
10.94574 -0.99933273 1.7
10.94574 -0.99933273 1.8
10.94574 -0.99933273 1.9
10.94574 -0.99933273 2
10.94574 -0.99933273 2.0999999
10.94574 -0.99933273 2.2
10.94574 -0.99933273 2.3
10.94574 -0.99933273 2.4000001
10.94574 -0.99933273 2.5
10.94574 -0.99933273 2.5999999
10.94574 -0.99933273 2.7
10.94574 -0.99933273 2.8
10.94574 -0.99933273 2.9000001
10.94574 -0.99933273 3
10.94574 -0.99933273 3.0999999
10.94574 -0.99933273 3.2
10.94574 -0.99933273 3.3
10.94574 -0.99933273 3.4000001
11.045534 -1.0057477 -0.5
11.045534 -1.0057477 -0.40000001
11.045534 -1.0057477 -0.30000001
11.045534 -1.0057477 -0.2
11.045534 -1.0057477 -0.1
11.045534 -1.0057477 -2.7755576e-17
11.045534 -1.0057477 0.1
11.045534 -1.0057477 0.2
11.045534 -1.0057477 0.30000001
11.045534 -1.0057477 0.40000001
11.045534 -1.0057477 0.5
11.045534 -1.0057477 0.60000002
11.045534 -1.0057477 0.69999999
11.045534 -1.0057477 0.80000001
11.045534 -1.0057477 0.89999998
11.045534 -1.0057477 1
11.045534 -1.0057477 1.1
11.045534 -1.0057477 1.2
11.045534 -1.0057477 1.3
11.045534 -1.0057477 1.4
11.045534 -1.0057477 1.5
11.045534 -1.0057477 1.6
11.045534 -1.0057477 1.7
11.045534 -1.0057477 1.8
11.045534 -1.0057477 1.9
11.045534 -1.0057477 2
11.045534 -1.0057477 2.0999999
11.045534 -1.0057477 2.2
11.045534 -1.0057477 2.3
11.045534 -1.0057477 2.4000001
11.045534 -1.0057477 2.5
11.045534 -1.0057477 2.5999999
11.045534 -1.0057477 2.7
11.045534 -1.0057477 2.8
11.045534 -1.0057477 2.9000001
11.045534 -1.0057477 3
11.045534 -1.0057477 3.0999999
11.045534 -1.0057477 3.2
11.045534 -1.0057477 3.3
11.045534 -1.0057477 3.4000001
11.145328 -1.0121627 -0.5
11.145328 -1.0121627 -0.40000001
11.145328 -1.0121627 -0.30000001
11.145328 -1.0121627 -0.2
11.145328 -1.0121627 -0.1
11.145328 -1.0121627 -2.7755576e-17
11.145328 -1.0121627 0.1
11.145328 -1.0121627 0.2
11.145328 -1.0121627 0.30000001
11.145328 -1.0121627 0.40000001
11.145328 -1.0121627 0.5
11.145328 -1.0121627 0.60000002
11.145328 -1.0121627 0.69999999
11.145328 -1.0121627 0.80000001
11.145328 -1.0121627 0.89999998
11.145328 -1.0121627 1
11.145328 -1.0121627 1.1
11.145328 -1.0121627 1.2
11.145328 -1.0121627 1.3
11.145328 -1.0121627 1.4
11.145328 -1.0121627 1.5
11.145328 -1.0121627 1.6
11.145328 -1.0121627 1.7
11.145328 -1.0121627 1.8
11.145328 -1.0121627 1.9
11.145328 -1.0121627 2
11.145328 -1.0121627 2.0999999
11.145328 -1.0121627 2.2
11.145328 -1.0121627 2.3
11.145328 -1.0121627 2.4000001
11.145328 -1.0121627 2.5
11.145328 -1.0121627 2.5999999
11.145328 -1.0121627 2.7
11.145328 -1.0121627 2.8
11.145328 -1.0121627 2.9000001
11.145328 -1.0121627 3
11.145328 -1.0121627 3.0999999
11.145328 -1.0121627 3.2
11.145328 -1.0121627 3.3
11.145328 -1.0121627 3.4000001
10.839531 -1.0927118 -0.5
10.839531 -1.0927118 -0.40000001
10.839531 -1.0927118 -0.30000001
10.839531 -1.0927118 -0.2
10.839531 -1.0927118 -0.1
10.839531 -1.0927118 -2.7755576e-17
10.839531 -1.0927118 0.1
10.839531 -1.0927118 0.2
10.839531 -1.0927118 0.30000001
10.839531 -1.0927118 0.40000001
10.839531 -1.0927118 0.5
10.839531 -1.0927118 0.60000002
10.839531 -1.0927118 0.69999999
10.839531 -1.0927118 0.80000001
10.839531 -1.0927118 0.89999998
10.839531 -1.0927118 1
10.839531 -1.0927118 1.1
10.839531 -1.0927118 1.2
10.839531 -1.0927118 1.3
10.839531 -1.0927118 1.4
10.839531 -1.0927118 1.5
10.839531 -1.0927118 1.6
10.839531 -1.0927118 1.7
10.839531 -1.0927118 1.8
10.839531 -1.0927118 1.9
10.839531 -1.0927118 2
10.839531 -1.0927118 2.0999999
10.839531 -1.0927118 2.2
10.839531 -1.0927118 2.3
10.839531 -1.0927118 2.4000001
10.839531 -1.0927118 2.5
10.839531 -1.0927118 2.5999999
10.839531 -1.0927118 2.7
10.839531 -1.0927118 2.8
10.839531 -1.0927118 2.9000001
10.839531 -1.0927118 3
10.839531 -1.0927118 3.0999999
10.839531 -1.0927118 3.2
10.839531 -1.0927118 3.3
10.839531 -1.0927118 3.4000001
10.939325 -1.0991267 -0.5
10.939325 -1.0991267 -0.40000001
10.939325 -1.0991267 -0.30000001
10.939325 -1.0991267 -0.2
10.939325 -1.0991267 -0.1
10.939325 -1.0991267 -2.7755576e-17
10.939325 -1.0991267 0.1
10.939325 -1.0991267 0.2
10.939325 -1.0991267 0.30000001
10.939325 -1.0991267 0.40000001
10.939325 -1.0991267 0.5
10.939325 -1.0991267 0.60000002
10.939325 -1.0991267 0.69999999
10.939325 -1.0991267 0.80000001
10.939325 -1.0991267 0.89999998
10.939325 -1.0991267 1
10.939325 -1.0991267 1.1
10.939325 -1.0991267 1.2
10.939325 -1.0991267 1.3
10.939325 -1.0991267 1.4
10.939325 -1.0991267 1.5
10.939325 -1.0991267 1.6
10.939325 -1.0991267 1.7
10.939325 -1.0991267 1.8
10.939325 -1.0991267 1.9
10.939325 -1.0991267 2
10.939325 -1.0991267 2.0999999
10.939325 -1.0991267 2.2
10.939325 -1.0991267 2.3
10.939325 -1.0991267 2.4000001
10.939325 -1.0991267 2.5
10.939325 -1.0991267 2.5999999
10.939325 -1.0991267 2.7
10.939325 -1.0991267 2.8
10.939325 -1.0991267 2.9000001
10.939325 -1.0991267 3
10.939325 -1.0991267 3.0999999
10.939325 -1.0991267 3.2
10.939325 -1.0991267 3.3
10.939325 -1.0991267 3.4000001
11.039119 -1.1055417 -0.5
11.039119 -1.1055417 -0.40000001
11.039119 -1.1055417 -0.30000001
11.039119 -1.1055417 -0.2
11.039119 -1.1055417 -0.1
11.039119 -1.1055417 -2.7755576e-17
11.039119 -1.1055417 0.1
11.039119 -1.1055417 0.2
11.039119 -1.1055417 0.30000001
11.039119 -1.1055417 0.40000001
11.039119 -1.1055417 0.5
11.039119 -1.1055417 0.60000002
11.039119 -1.1055417 0.69999999
11.039119 -1.1055417 0.80000001
11.039119 -1.1055417 0.89999998
11.039119 -1.1055417 1
11.039119 -1.1055417 1.1
11.039119 -1.1055417 1.2
11.039119 -1.1055417 1.3
11.039119 -1.1055417 1.4
11.039119 -1.1055417 1.5
11.039119 -1.1055417 1.6
11.039119 -1.1055417 1.7
11.039119 -1.1055417 1.8
11.039119 -1.1055417 1.9
11.039119 -1.1055417 2
11.039119 -1.1055417 2.0999999
11.039119 -1.1055417 2.2
11.039119 -1.1055417 2.3
11.039119 -1.1055417 2.4000001
11.039119 -1.1055417 2.5
11.039119 -1.1055417 2.5999999
11.039119 -1.1055417 2.7
11.039119 -1.1055417 2.8
11.039119 -1.1055417 2.9000001
11.039119 -1.1055417 3
11.039119 -1.1055417 3.0999999
11.039119 -1.1055417 3.2
11.039119 -1.1055417 3.3
11.039119 -1.1055417 3.4000001
11.138913 -1.1119567 -0.5
11.138913 -1.1119567 -0.40000001
11.138913 -1.1119567 -0.30000001
11.138913 -1.1119567 -0.2
11.138913 -1.1119567 -0.1
11.138913 -1.1119567 -2.7755576e-17
11.138913 -1.1119567 0.1
11.138913 -1.1119567 0.2
11.138913 -1.1119567 0.30000001
11.138913 -1.1119567 0.40000001
11.138913 -1.1119567 0.5
11.138913 -1.1119567 0.60000002
11.138913 -1.1119567 0.69999999
11.138913 -1.1119567 0.80000001
11.138913 -1.1119567 0.89999998
11.138913 -1.1119567 1
11.138913 -1.1119567 1.1
11.138913 -1.1119567 1.2
11.138913 -1.1119567 1.3
11.138913 -1.1119567 1.4
11.138913 -1.1119567 1.5
11.138913 -1.1119567 1.6
11.138913 -1.1119567 1.7
11.138913 -1.1119567 1.8
11.138913 -1.1119567 1.9
11.138913 -1.1119567 2
11.138913 -1.1119567 2.0999999
11.138913 -1.1119567 2.2
11.138913 -1.1119567 2.3
11.138913 -1.1119567 2.4000001
11.138913 -1.1119567 2.5
11.138913 -1.1119567 2.5999999
11.138913 -1.1119567 2.7
11.138913 -1.1119567 2.8
11.138913 -1.1119567 2.9000001
11.138913 -1.1119567 3
11.138913 -1.1119567 3.0999999
11.138913 -1.1119567 3.2
11.138913 -1.1119567 3.3
11.138913 -1.1119567 3.4000001
10.833116 -1.1925058 -0.5
10.833116 -1.1925058 -0.40000001
10.833116 -1.1925058 -0.30000001
10.833116 -1.1925058 -0.2
10.833116 -1.1925058 -0.1
10.833116 -1.1925058 -2.7755576e-17
10.833116 -1.1925058 0.1
10.833116 -1.1925058 0.2
10.833116 -1.1925058 0.30000001
10.833116 -1.1925058 0.40000001
10.833116 -1.1925058 0.5
10.833116 -1.1925058 0.60000002
10.833116 -1.1925058 0.69999999
10.833116 -1.1925058 0.80000001
10.833116 -1.1925058 0.89999998
10.833116 -1.1925058 1
10.833116 -1.1925058 1.1
10.833116 -1.1925058 1.2
10.833116 -1.1925058 1.3
10.833116 -1.1925058 1.4
10.833116 -1.1925058 1.5
10.833116 -1.1925058 1.6
10.833116 -1.1925058 1.7
10.833116 -1.1925058 1.8
10.833116 -1.1925058 1.9
10.833116 -1.1925058 2
10.833116 -1.1925058 2.0999999
10.833116 -1.1925058 2.2
10.833116 -1.1925058 2.3
10.833116 -1.1925058 2.4000001
10.833116 -1.1925058 2.5
10.833116 -1.1925058 2.5999999
10.833116 -1.1925058 2.7
10.833116 -1.1925058 2.8
10.833116 -1.1925058 2.9000001
10.833116 -1.1925058 3
10.833116 -1.1925058 3.0999999
10.833116 -1.1925058 3.2
10.833116 -1.1925058 3.3
10.833116 -1.1925058 3.4000001
10.93291 -1.1989207 -0.5
10.93291 -1.1989207 -0.40000001
10.93291 -1.1989207 -0.30000001
10.93291 -1.1989207 -0.2
10.93291 -1.1989207 -0.1
10.93291 -1.1989207 -2.7755576e-17
10.93291 -1.1989207 0.1
10.93291 -1.1989207 0.2
10.93291 -1.1989207 0.30000001
10.93291 -1.1989207 0.40000001
10.93291 -1.1989207 0.5
10.93291 -1.1989207 0.60000002
10.93291 -1.1989207 0.69999999
10.93291 -1.1989207 0.80000001
10.93291 -1.1989207 0.89999998
10.93291 -1.1989207 1
10.93291 -1.1989207 1.1
10.93291 -1.1989207 1.2
10.93291 -1.1989207 1.3
10.93291 -1.1989207 1.4
10.93291 -1.1989207 1.5
10.93291 -1.1989207 1.6
10.93291 -1.1989207 1.7
10.93291 -1.1989207 1.8
10.93291 -1.1989207 1.9
10.93291 -1.1989207 2
10.93291 -1.1989207 2.0999999
10.93291 -1.1989207 2.2
10.93291 -1.1989207 2.3
10.93291 -1.1989207 2.4000001
10.93291 -1.1989207 2.5
10.93291 -1.1989207 2.5999999
10.93291 -1.1989207 2.7
10.93291 -1.1989207 2.8
10.93291 -1.1989207 2.9000001
10.93291 -1.1989207 3
10.93291 -1.1989207 3.0999999
10.93291 -1.1989207 3.2
10.93291 -1.1989207 3.3
10.93291 -1.1989207 3.4000001
11.032704 -1.2053357 -0.5
11.032704 -1.2053357 -0.40000001
11.032704 -1.2053357 -0.30000001
11.032704 -1.2053357 -0.2
11.032704 -1.2053357 -0.1
11.032704 -1.2053357 -2.7755576e-17
11.032704 -1.2053357 0.1
11.032704 -1.2053357 0.2
11.032704 -1.2053357 0.30000001
11.032704 -1.2053357 0.40000001
11.032704 -1.2053357 0.5
11.032704 -1.2053357 0.60000002
11.032704 -1.2053357 0.69999999
11.032704 -1.2053357 0.80000001
11.032704 -1.2053357 0.89999998
11.032704 -1.2053357 1
11.032704 -1.2053357 1.1
11.032704 -1.2053357 1.2
11.032704 -1.2053357 1.3
11.032704 -1.2053357 1.4
11.032704 -1.2053357 1.5
11.032704 -1.2053357 1.6
11.032704 -1.2053357 1.7
11.032704 -1.2053357 1.8
11.032704 -1.2053357 1.9
11.032704 -1.2053357 2
11.032704 -1.2053357 2.0999999
11.032704 -1.2053357 2.2
11.032704 -1.2053357 2.3
11.032704 -1.2053357 2.4000001
11.032704 -1.2053357 2.5
11.032704 -1.2053357 2.5999999
11.032704 -1.2053357 2.7
11.032704 -1.2053357 2.8
11.032704 -1.2053357 2.9000001
11.032704 -1.2053357 3
11.032704 -1.2053357 3.0999999
11.032704 -1.2053357 3.2
11.032704 -1.2053357 3.3
11.032704 -1.2053357 3.4000001
11.132498 -1.2117507 -0.5
11.132498 -1.2117507 -0.40000001
11.132498 -1.2117507 -0.30000001
11.132498 -1.2117507 -0.2
11.132498 -1.2117507 -0.1
11.132498 -1.2117507 -2.7755576e-17
11.132498 -1.2117507 0.1
11.132498 -1.2117507 0.2
11.132498 -1.2117507 0.30000001
11.132498 -1.2117507 0.40000001
11.132498 -1.2117507 0.5
11.132498 -1.2117507 0.60000002
11.132498 -1.2117507 0.69999999
11.132498 -1.2117507 0.80000001
11.132498 -1.2117507 0.89999998
11.132498 -1.2117507 1
11.132498 -1.2117507 1.1
11.132498 -1.2117507 1.2
11.132498 -1.2117507 1.3
11.132498 -1.2117507 1.4
11.132498 -1.2117507 1.5
11.132498 -1.2117507 1.6
11.132498 -1.2117507 1.7
11.132498 -1.2117507 1.8
11.132498 -1.2117507 1.9
11.132498 -1.2117507 2
11.132498 -1.2117507 2.0999999
11.132498 -1.2117507 2.2
11.132498 -1.2117507 2.3
11.132498 -1.2117507 2.4000001
11.132498 -1.2117507 2.5
11.132498 -1.2117507 2.5999999
11.132498 -1.2117507 2.7
11.132498 -1.2117507 2.8
11.132498 -1.2117507 2.9000001
11.132498 -1.2117507 3
11.132498 -1.2117507 3.0999999
11.132498 -1.2117507 3.2
11.132498 -1.2117507 3.3
11.132498 -1.2117507 3.4000001
10.826701 -1.2922997 -0.5
10.826701 -1.2922997 -0.40000001
10.826701 -1.2922997 -0.30000001
10.826701 -1.2922997 -0.2
10.826701 -1.2922997 -0.1
10.826701 -1.2922997 -2.7755576e-17
10.826701 -1.2922997 0.1
10.826701 -1.2922997 0.2
10.826701 -1.2922997 0.30000001
10.826701 -1.2922997 0.40000001
10.826701 -1.2922997 0.5
10.826701 -1.2922997 0.60000002
10.826701 -1.2922997 0.69999999
10.826701 -1.2922997 0.80000001
10.826701 -1.2922997 0.89999998
10.826701 -1.2922997 1
10.826701 -1.2922997 1.1
10.826701 -1.2922997 1.2
10.826701 -1.2922997 1.3
10.826701 -1.2922997 1.4
10.826701 -1.2922997 1.5
10.826701 -1.2922997 1.6
10.826701 -1.2922997 1.7
10.826701 -1.2922997 1.8
10.826701 -1.2922997 1.9
10.826701 -1.2922997 2
10.826701 -1.2922997 2.0999999
10.826701 -1.2922997 2.2
10.826701 -1.2922997 2.3
10.826701 -1.2922997 2.4000001
10.826701 -1.2922997 2.5
10.826701 -1.2922997 2.5999999
10.826701 -1.2922997 2.7
10.826701 -1.2922997 2.8
10.826701 -1.2922997 2.9000001
10.826701 -1.2922997 3
10.826701 -1.2922997 3.0999999
10.826701 -1.2922997 3.2
10.826701 -1.2922997 3.3
10.826701 -1.2922997 3.4000001
10.926495 -1.2987148 -0.5
10.926495 -1.2987148 -0.40000001
10.926495 -1.2987148 -0.30000001
10.926495 -1.2987148 -0.2
10.926495 -1.2987148 -0.1
10.926495 -1.2987148 -2.7755576e-17
10.926495 -1.2987148 0.1
10.926495 -1.2987148 0.2
10.926495 -1.2987148 0.30000001
10.926495 -1.2987148 0.40000001
10.926495 -1.2987148 0.5
10.926495 -1.2987148 0.60000002
10.926495 -1.2987148 0.69999999
10.926495 -1.2987148 0.80000001
10.926495 -1.2987148 0.89999998
10.926495 -1.2987148 1
10.926495 -1.2987148 1.1
10.926495 -1.2987148 1.2
10.926495 -1.2987148 1.3
10.926495 -1.2987148 1.4
10.926495 -1.2987148 1.5
10.926495 -1.2987148 1.6
10.926495 -1.2987148 1.7
10.926495 -1.2987148 1.8
10.926495 -1.2987148 1.9
10.926495 -1.2987148 2
10.926495 -1.2987148 2.0999999
10.926495 -1.2987148 2.2
10.926495 -1.2987148 2.3
10.926495 -1.2987148 2.4000001
10.926495 -1.2987148 2.5
10.926495 -1.2987148 2.5999999
10.926495 -1.2987148 2.7
10.926495 -1.2987148 2.8
10.926495 -1.2987148 2.9000001
10.926495 -1.2987148 3
10.926495 -1.2987148 3.0999999
10.926495 -1.2987148 3.2
10.926495 -1.2987148 3.3
10.926495 -1.2987148 3.4000001
11.026289 -1.3051298 -0.5
11.026289 -1.3051298 -0.40000001
11.026289 -1.3051298 -0.30000001
11.026289 -1.3051298 -0.2
11.026289 -1.3051298 -0.1
11.026289 -1.3051298 -2.7755576e-17
11.026289 -1.3051298 0.1
11.026289 -1.3051298 0.2
11.026289 -1.3051298 0.30000001
11.026289 -1.3051298 0.40000001
11.026289 -1.3051298 0.5
11.026289 -1.3051298 0.60000002
11.026289 -1.3051298 0.69999999
11.026289 -1.3051298 0.80000001
11.026289 -1.3051298 0.89999998
11.026289 -1.3051298 1
11.026289 -1.3051298 1.1
11.026289 -1.3051298 1.2
11.026289 -1.3051298 1.3
11.026289 -1.3051298 1.4
11.026289 -1.3051298 1.5
11.026289 -1.3051298 1.6
11.026289 -1.3051298 1.7
11.026289 -1.3051298 1.8
11.026289 -1.3051298 1.9
11.026289 -1.3051298 2
11.026289 -1.3051298 2.0999999
11.026289 -1.3051298 2.2
11.026289 -1.3051298 2.3
11.026289 -1.3051298 2.4000001
11.026289 -1.3051298 2.5
11.026289 -1.3051298 2.5999999
11.026289 -1.3051298 2.7
11.026289 -1.3051298 2.8
11.026289 -1.3051298 2.9000001
11.026289 -1.3051298 3
11.026289 -1.3051298 3.0999999
11.026289 -1.3051298 3.2
11.026289 -1.3051298 3.3
11.026289 -1.3051298 3.4000001
11.126083 -1.3115448 -0.5
11.126083 -1.3115448 -0.40000001
11.126083 -1.3115448 -0.30000001
11.126083 -1.3115448 -0.2
11.126083 -1.3115448 -0.1
11.126083 -1.3115448 -2.7755576e-17
11.126083 -1.3115448 0.1
11.126083 -1.3115448 0.2
11.126083 -1.3115448 0.30000001
11.126083 -1.3115448 0.40000001
11.126083 -1.3115448 0.5
11.126083 -1.3115448 0.60000002
11.126083 -1.3115448 0.69999999
11.126083 -1.3115448 0.80000001
11.126083 -1.3115448 0.89999998
11.126083 -1.3115448 1
11.126083 -1.3115448 1.1
11.126083 -1.3115448 1.2
11.126083 -1.3115448 1.3
11.126083 -1.3115448 1.4
11.126083 -1.3115448 1.5
11.126083 -1.3115448 1.6
11.126083 -1.3115448 1.7
11.126083 -1.3115448 1.8
11.126083 -1.3115448 1.9
11.126083 -1.3115448 2
11.126083 -1.3115448 2.0999999
11.126083 -1.3115448 2.2
11.126083 -1.3115448 2.3
11.126083 -1.3115448 2.4000001
11.126083 -1.3115448 2.5
11.126083 -1.3115448 2.5999999
11.126083 -1.3115448 2.7
11.126083 -1.3115448 2.8
11.126083 -1.3115448 2.9000001
11.126083 -1.3115448 3
11.126083 -1.3115448 3.0999999
11.126083 -1.3115448 3.2
11.126083 -1.3115448 3.3
11.126083 -1.3115448 3.4000001
10.820286 -1.3920938 -0.5
10.820286 -1.3920938 -0.40000001
10.820286 -1.3920938 -0.30000001
10.820286 -1.3920938 -0.2
10.820286 -1.3920938 -0.1
10.820286 -1.3920938 -2.7755576e-17
10.820286 -1.3920938 0.1
10.820286 -1.3920938 0.2
10.820286 -1.3920938 0.30000001
10.820286 -1.3920938 0.40000001
10.820286 -1.3920938 0.5
10.820286 -1.3920938 0.60000002
10.820286 -1.3920938 0.69999999
10.820286 -1.3920938 0.80000001
10.820286 -1.3920938 0.89999998
10.820286 -1.3920938 1
10.820286 -1.3920938 1.1
10.820286 -1.3920938 1.2
10.820286 -1.3920938 1.3
10.820286 -1.3920938 1.4
10.820286 -1.3920938 1.5
10.820286 -1.3920938 1.6
10.820286 -1.3920938 1.7
10.820286 -1.3920938 1.8
10.820286 -1.3920938 1.9
10.820286 -1.3920938 2
10.820286 -1.3920938 2.0999999
10.820286 -1.3920938 2.2
10.820286 -1.3920938 2.3
10.820286 -1.3920938 2.4000001
10.820286 -1.3920938 2.5
10.820286 -1.3920938 2.5999999
10.820286 -1.3920938 2.7
10.820286 -1.3920938 2.8
10.820286 -1.3920938 2.9000001
10.820286 -1.3920938 3
10.820286 -1.3920938 3.0999999
10.820286 -1.3920938 3.2
10.820286 -1.3920938 3.3
10.820286 -1.3920938 3.4000001
10.92008 -1.3985088 -0.5
10.92008 -1.3985088 -0.40000001
10.92008 -1.3985088 -0.30000001
10.92008 -1.3985088 -0.2
10.92008 -1.3985088 -0.1
10.92008 -1.3985088 -2.7755576e-17
10.92008 -1.3985088 0.1
10.92008 -1.3985088 0.2
10.92008 -1.3985088 0.30000001
10.92008 -1.3985088 0.40000001
10.92008 -1.3985088 0.5
10.92008 -1.3985088 0.60000002
10.92008 -1.3985088 0.69999999
10.92008 -1.3985088 0.80000001
10.92008 -1.3985088 0.89999998
10.92008 -1.3985088 1
10.92008 -1.3985088 1.1
10.92008 -1.3985088 1.2
10.92008 -1.3985088 1.3
10.92008 -1.3985088 1.4
10.92008 -1.3985088 1.5
10.92008 -1.3985088 1.6
10.92008 -1.3985088 1.7
10.92008 -1.3985088 1.8
10.92008 -1.3985088 1.9
10.92008 -1.3985088 2
10.92008 -1.3985088 2.0999999
10.92008 -1.3985088 2.2
10.92008 -1.3985088 2.3
10.92008 -1.3985088 2.4000001
10.92008 -1.3985088 2.5
10.92008 -1.3985088 2.5999999
10.92008 -1.3985088 2.7
10.92008 -1.3985088 2.8
10.92008 -1.3985088 2.9000001
10.92008 -1.3985088 3
10.92008 -1.3985088 3.0999999
10.92008 -1.3985088 3.2
10.92008 -1.3985088 3.3
10.92008 -1.3985088 3.4000001
11.019874 -1.4049238 -0.5
11.019874 -1.4049238 -0.40000001
11.019874 -1.4049238 -0.30000001
11.019874 -1.4049238 -0.2
11.019874 -1.4049238 -0.1
11.019874 -1.4049238 -2.7755576e-17
11.019874 -1.4049238 0.1
11.019874 -1.4049238 0.2
11.019874 -1.4049238 0.30000001
11.019874 -1.4049238 0.40000001
11.019874 -1.4049238 0.5
11.019874 -1.4049238 0.60000002
11.019874 -1.4049238 0.69999999
11.019874 -1.4049238 0.80000001
11.019874 -1.4049238 0.89999998
11.019874 -1.4049238 1
11.019874 -1.4049238 1.1
11.019874 -1.4049238 1.2
11.019874 -1.4049238 1.3
11.019874 -1.4049238 1.4
11.019874 -1.4049238 1.5
11.019874 -1.4049238 1.6
11.019874 -1.4049238 1.7
11.019874 -1.4049238 1.8
11.019874 -1.4049238 1.9
11.019874 -1.4049238 2
11.019874 -1.4049238 2.0999999
11.019874 -1.4049238 2.2
11.019874 -1.4049238 2.3
11.019874 -1.4049238 2.4000001
11.019874 -1.4049238 2.5
11.019874 -1.4049238 2.5999999
11.019874 -1.4049238 2.7
11.019874 -1.4049238 2.8
11.019874 -1.4049238 2.9000001
11.019874 -1.4049238 3
11.019874 -1.4049238 3.0999999
11.019874 -1.4049238 3.2
11.019874 -1.4049238 3.3
11.019874 -1.4049238 3.4000001
11.119668 -1.4113388 -0.5
11.119668 -1.4113388 -0.40000001
11.119668 -1.4113388 -0.30000001
11.119668 -1.4113388 -0.2
11.119668 -1.4113388 -0.1
11.119668 -1.4113388 -2.7755576e-17
11.119668 -1.4113388 0.1
11.119668 -1.4113388 0.2
11.119668 -1.4113388 0.30000001
11.119668 -1.4113388 0.40000001
11.119668 -1.4113388 0.5
11.119668 -1.4113388 0.60000002
11.119668 -1.4113388 0.69999999
11.119668 -1.4113388 0.80000001
11.119668 -1.4113388 0.89999998
11.119668 -1.4113388 1
11.119668 -1.4113388 1.1
11.119668 -1.4113388 1.2
11.119668 -1.4113388 1.3
11.119668 -1.4113388 1.4
11.119668 -1.4113388 1.5
11.119668 -1.4113388 1.6
11.119668 -1.4113388 1.7
11.119668 -1.4113388 1.8
11.119668 -1.4113388 1.9
11.119668 -1.4113388 2
11.119668 -1.4113388 2.0999999
11.119668 -1.4113388 2.2
11.119668 -1.4113388 2.3
11.119668 -1.4113388 2.4000001
11.119668 -1.4113388 2.5
11.119668 -1.4113388 2.5999999
11.119668 -1.4113388 2.7
11.119668 -1.4113388 2.8
11.119668 -1.4113388 2.9000001
11.119668 -1.4113388 3
11.119668 -1.4113388 3.0999999
11.119668 -1.4113388 3.2
11.119668 -1.4113388 3.3
11.119668 -1.4113388 3.4000001
10.813871 -1.4918878 -0.5
10.813871 -1.4918878 -0.40000001
10.813871 -1.4918878 -0.30000001
10.813871 -1.4918878 -0.2
10.813871 -1.4918878 -0.1
10.813871 -1.4918878 -2.7755576e-17
10.813871 -1.4918878 0.1
10.813871 -1.4918878 0.2
10.813871 -1.4918878 0.30000001
10.813871 -1.4918878 0.40000001
10.813871 -1.4918878 0.5
10.813871 -1.4918878 0.60000002
10.813871 -1.4918878 0.69999999
10.813871 -1.4918878 0.80000001
10.813871 -1.4918878 0.89999998
10.813871 -1.4918878 1
10.813871 -1.4918878 1.1
10.813871 -1.4918878 1.2
10.813871 -1.4918878 1.3
10.813871 -1.4918878 1.4
10.813871 -1.4918878 1.5
10.813871 -1.4918878 1.6
10.813871 -1.4918878 1.7
10.813871 -1.4918878 1.8
10.813871 -1.4918878 1.9
10.813871 -1.4918878 2
10.813871 -1.4918878 2.0999999
10.813871 -1.4918878 2.2
10.813871 -1.4918878 2.3
10.813871 -1.4918878 2.4000001
10.813871 -1.4918878 2.5
10.813871 -1.4918878 2.5999999
10.813871 -1.4918878 2.7
10.813871 -1.4918878 2.8
10.813871 -1.4918878 2.9000001
10.813871 -1.4918878 3
10.813871 -1.4918878 3.0999999
10.813871 -1.4918878 3.2
10.813871 -1.4918878 3.3
10.813871 -1.4918878 3.4000001
10.913665 -1.4983028 -0.5
10.913665 -1.4983028 -0.40000001
10.913665 -1.4983028 -0.30000001
10.913665 -1.4983028 -0.2
10.913665 -1.4983028 -0.1
10.913665 -1.4983028 -2.7755576e-17
10.913665 -1.4983028 0.1
10.913665 -1.4983028 0.2
10.913665 -1.4983028 0.30000001
10.913665 -1.4983028 0.40000001
10.913665 -1.4983028 0.5
10.913665 -1.4983028 0.60000002
10.913665 -1.4983028 0.69999999
10.913665 -1.4983028 0.80000001
10.913665 -1.4983028 0.89999998
10.913665 -1.4983028 1
10.913665 -1.4983028 1.1
10.913665 -1.4983028 1.2
10.913665 -1.4983028 1.3
10.913665 -1.4983028 1.4
10.913665 -1.4983028 1.5
10.913665 -1.4983028 1.6
10.913665 -1.4983028 1.7
10.913665 -1.4983028 1.8
10.913665 -1.4983028 1.9
10.913665 -1.4983028 2
10.913665 -1.4983028 2.0999999
10.913665 -1.4983028 2.2
10.913665 -1.4983028 2.3
10.913665 -1.4983028 2.4000001
10.913665 -1.4983028 2.5
10.913665 -1.4983028 2.5999999
10.913665 -1.4983028 2.7
10.913665 -1.4983028 2.8
10.913665 -1.4983028 2.9000001
10.913665 -1.4983028 3
10.913665 -1.4983028 3.0999999
10.913665 -1.4983028 3.2
10.913665 -1.4983028 3.3
10.913665 -1.4983028 3.4000001
11.013459 -1.5047178 -0.5
11.013459 -1.5047178 -0.40000001
11.013459 -1.5047178 -0.30000001
11.013459 -1.5047178 -0.2
11.013459 -1.5047178 -0.1
11.013459 -1.5047178 -2.7755576e-17
11.013459 -1.5047178 0.1
11.013459 -1.5047178 0.2
11.013459 -1.5047178 0.30000001
11.013459 -1.5047178 0.40000001
11.013459 -1.5047178 0.5
11.013459 -1.5047178 0.60000002
11.013459 -1.5047178 0.69999999
11.013459 -1.5047178 0.80000001
11.013459 -1.5047178 0.89999998
11.013459 -1.5047178 1
11.013459 -1.5047178 1.1
11.013459 -1.5047178 1.2
11.013459 -1.5047178 1.3
11.013459 -1.5047178 1.4
11.013459 -1.5047178 1.5
11.013459 -1.5047178 1.6
11.013459 -1.5047178 1.7
11.013459 -1.5047178 1.8
11.013459 -1.5047178 1.9
11.013459 -1.5047178 2
11.013459 -1.5047178 2.0999999
11.013459 -1.5047178 2.2
11.013459 -1.5047178 2.3
11.013459 -1.5047178 2.4000001
11.013459 -1.5047178 2.5
11.013459 -1.5047178 2.5999999
11.013459 -1.5047178 2.7
11.013459 -1.5047178 2.8
11.013459 -1.5047178 2.9000001
11.013459 -1.5047178 3
11.013459 -1.5047178 3.0999999
11.013459 -1.5047178 3.2
11.013459 -1.5047178 3.3
11.013459 -1.5047178 3.4000001
11.113253 -1.5111328 -0.5
11.113253 -1.5111328 -0.40000001
11.113253 -1.5111328 -0.30000001
11.113253 -1.5111328 -0.2
11.113253 -1.5111328 -0.1
11.113253 -1.5111328 -2.7755576e-17
11.113253 -1.5111328 0.1
11.113253 -1.5111328 0.2
11.113253 -1.5111328 0.30000001
11.113253 -1.5111328 0.40000001
11.113253 -1.5111328 0.5
11.113253 -1.5111328 0.60000002
11.113253 -1.5111328 0.69999999
11.113253 -1.5111328 0.80000001
11.113253 -1.5111328 0.89999998
11.113253 -1.5111328 1
11.113253 -1.5111328 1.1
11.113253 -1.5111328 1.2
11.113253 -1.5111328 1.3
11.113253 -1.5111328 1.4
11.113253 -1.5111328 1.5
11.113253 -1.5111328 1.6
11.113253 -1.5111328 1.7
11.113253 -1.5111328 1.8
11.113253 -1.5111328 1.9
11.113253 -1.5111328 2
11.113253 -1.5111328 2.0999999
11.113253 -1.5111328 2.2
11.113253 -1.5111328 2.3
11.113253 -1.5111328 2.4000001
11.113253 -1.5111328 2.5
11.113253 -1.5111328 2.5999999
11.113253 -1.5111328 2.7
11.113253 -1.5111328 2.8
11.113253 -1.5111328 2.9000001
11.113253 -1.5111328 3
11.113253 -1.5111328 3.0999999
11.113253 -1.5111328 3.2
11.113253 -1.5111328 3.3
11.113253 -1.5111328 3.4000001
10.807456 -1.5916818 -0.5
10.807456 -1.5916818 -0.40000001
10.807456 -1.5916818 -0.30000001
10.807456 -1.5916818 -0.2
10.807456 -1.5916818 -0.1
