# .PCD v0.7 - Point Cloud Data file format
VERSION 0.7
FIELDS x y z
SIZE 4 4 4
TYPE F F F
COUNT 1 1 1
WIDTH 2665
HEIGHT 1
VIEWPOINT 0 0 0 1 0 0 0
POINTS 2665
DATA ascii
1.85 1.8 2.9000001
1.85 1.8 3
1.85 1.8 3.0999999
1.85 1.8 3.2
1.85 1.8 3.3
1.85 1.8 3.4000001
1.85 1.8 3.5
1.85 1.8 3.5999999
1.85 1.8 3.7
1.85 1.8 3.8
1.85 1.8 3.9000001
1.85 1.8 4
1.85 1.8 4.0999999
1.85 1.8 4.1999998
1.85 1.8 4.3000002
1.85 1.8 4.4000001
1.85 1.8 4.5
1.85 1.8 4.5999999
1.85 1.8 4.6999998
1.85 1.8 4.8000002
1.85 1.8 4.9000001
1.85 1.8 5
1.85 1.8 5.0999999
1.85 1.8 5.1999998
1.85 1.8 5.3000002
1.85 1.8 5.4000001
1.85 1.8 5.5
1.95 1.8 -0.5
1.95 1.8 -0.40000001
1.95 1.8 -0.30000001
1.95 1.8 -0.2
1.95 1.8 -0.1
1.95 1.8 -2.7755576e-17
1.95 1.8 0.1
1.95 1.8 0.2
1.95 1.8 0.30000001
1.95 1.8 0.40000001
1.95 1.8 0.5
1.95 1.8 0.60000002
1.95 1.8 0.69999999
1.95 1.8 0.80000001
1.95 1.8 0.89999998
1.95 1.8 1
1.95 1.8 1.1
1.95 1.8 1.2
1.95 1.8 1.3
1.95 1.8 1.4
1.95 1.8 1.5
1.95 1.8 1.6
1.95 1.8 1.7
1.95 1.8 1.8
1.95 1.8 1.9
1.95 1.8 2
1.95 1.8 2.0999999
1.95 1.8 2.2
1.95 1.8 2.3
1.95 1.8 2.4000001
1.95 1.8 2.5
1.95 1.8 2.5999999
1.95 1.8 2.7
1.95 1.8 2.8
1.95 1.8 2.9000001
1.95 1.8 3
1.95 1.8 3.0999999
1.95 1.8 3.2
1.95 1.8 3.3
1.95 1.8 3.4000001
1.95 1.8 3.5
1.95 1.8 3.5999999
1.95 1.8 3.7
1.95 1.8 3.8
1.95 1.8 3.9000001
1.95 1.8 4
1.95 1.8 4.0999999
1.95 1.8 4.1999998
1.95 1.8 4.3000002
1.95 1.8 4.4000001
1.95 1.8 4.5
1.95 1.8 4.5999999
1.95 1.8 4.6999998
1.95 1.8 4.8000002
1.95 1.8 4.9000001
1.95 1.8 5
1.95 1.8 5.0999999
1.95 1.8 5.1999998
1.95 1.8 5.3000002
1.95 1.8 5.4000001
1.95 1.8 5.5
2.05 1.8 -0.5
2.05 1.8 -0.40000001
2.05 1.8 -0.30000001
2.05 1.8 -0.2
2.05 1.8 -0.1
2.05 1.8 -2.7755576e-17
2.05 1.8 0.1
2.05 1.8 0.2
2.05 1.8 0.30000001
2.05 1.8 0.40000001
2.05 1.8 0.5
2.05 1.8 0.60000002
2.05 1.8 0.69999999
2.05 1.8 0.80000001
2.05 1.8 0.89999998
2.05 1.8 1
2.05 1.8 1.1
2.05 1.8 1.2
2.05 1.8 1.3
2.05 1.8 1.4
2.05 1.8 1.5
2.05 1.8 1.6
2.05 1.8 1.7
2.05 1.8 1.8
2.05 1.8 1.9
2.05 1.8 2
2.05 1.8 2.0999999
2.05 1.8 2.2
2.05 1.8 2.3
2.05 1.8 2.4000001
2.05 1.8 2.5
2.05 1.8 2.5999999
2.05 1.8 2.7
2.05 1.8 2.8
2.05 1.8 2.9000001
2.05 1.8 3
2.05 1.8 3.0999999
2.05 1.8 3.2
2.05 1.8 3.3
2.05 1.8 3.4000001
2.05 1.8 3.5
2.05 1.8 3.5999999
2.05 1.8 3.7
2.05 1.8 3.8
2.05 1.8 3.9000001
2.05 1.8 4
2.05 1.8 4.0999999
2.05 1.8 4.1999998
2.05 1.8 4.3000002
2.05 1.8 4.4000001
2.05 1.8 4.5
2.05 1.8 4.5999999
2.05 1.8 4.6999998
2.05 1.8 4.8000002
2.05 1.8 4.9000001
2.05 1.8 5
2.05 1.8 5.0999999
2.05 1.8 5.1999998
2.05 1.8 5.3000002
2.05 1.8 5.4000001
2.05 1.8 5.5
2.1500001 1.8 -0.5
2.1500001 1.8 -0.40000001
2.1500001 1.8 -0.30000001
2.1500001 1.8 -0.2
2.1500001 1.8 -0.1
2.1500001 1.8 -2.7755576e-17
2.1500001 1.8 0.1
2.1500001 1.8 0.2
2.1500001 1.8 0.30000001
2.1500001 1.8 0.40000001
2.1500001 1.8 0.5
2.1500001 1.8 0.60000002
2.1500001 1.8 0.69999999
2.1500001 1.8 0.80000001
2.1500001 1.8 0.89999998
2.1500001 1.8 1
2.1500001 1.8 1.1
2.1500001 1.8 1.2
2.1500001 1.8 1.3
2.1500001 1.8 1.4
2.1500001 1.8 1.5
2.1500001 1.8 1.6
2.1500001 1.8 1.7
2.1500001 1.8 1.8
2.1500001 1.8 1.9
2.1500001 1.8 2
2.1500001 1.8 2.0999999
2.1500001 1.8 2.2
2.1500001 1.8 2.3
2.1500001 1.8 2.4000001
2.1500001 1.8 2.5
2.1500001 1.8 2.5999999
2.1500001 1.8 2.7
2.1500001 1.8 2.8
2.1500001 1.8 2.9000001
2.1500001 1.8 3
2.1500001 1.8 3.0999999
2.1500001 1.8 3.2
2.1500001 1.8 3.3
2.1500001 1.8 3.4000001
2.1500001 1.8 3.5
2.1500001 1.8 3.5999999
2.1500001 1.8 3.7
2.1500001 1.8 3.8
2.1500001 1.8 3.9000001
2.1500001 1.8 4
2.1500001 1.8 4.0999999
2.1500001 1.8 4.1999998
2.1500001 1.8 4.3000002
2.1500001 1.8 4.4000001
2.1500001 1.8 4.5
2.1500001 1.8 4.5999999
2.1500001 1.8 4.6999998
2.1500001 1.8 4.8000002
2.1500001 1.8 4.9000001
2.1500001 1.8 5
2.1500001 1.8 5.0999999
2.1500001 1.8 5.1999998
2.1500001 1.8 5.3000002
2.1500001 1.8 5.4000001
2.1500001 1.8 5.5
1.85 1.7 -0.5
1.85 1.7 -0.40000001
1.85 1.7 -0.30000001
1.85 1.7 -0.2
1.85 1.7 -0.1
1.85 1.7 -2.7755576e-17
1.85 1.7 0.1
1.85 1.7 0.2
1.85 1.7 0.30000001
1.85 1.7 0.40000001
1.85 1.7 0.5
1.85 1.7 0.60000002
1.85 1.7 0.69999999
1.85 1.7 0.80000001
1.85 1.7 0.89999998
1.85 1.7 1
1.85 1.7 1.1
1.85 1.7 1.2
1.85 1.7 1.3
1.85 1.7 1.4
1.85 1.7 1.5
1.85 1.7 1.6
1.85 1.7 1.7
1.85 1.7 1.8
1.85 1.7 1.9
1.85 1.7 2
1.85 1.7 2.0999999
1.85 1.7 2.2
1.85 1.7 2.3
1.85 1.7 2.4000001
1.85 1.7 2.5
1.85 1.7 2.5999999
1.85 1.7 2.7
1.85 1.7 2.8
1.85 1.7 2.9000001
1.85 1.7 3
1.85 1.7 3.0999999
1.85 1.7 3.2
1.85 1.7 3.3
1.85 1.7 3.4000001
1.85 1.7 3.5
1.85 1.7 3.5999999
1.85 1.7 3.7
1.85 1.7 3.8
1.85 1.7 3.9000001
1.85 1.7 4
1.85 1.7 4.0999999
1.85 1.7 4.1999998
1.85 1.7 4.3000002
1.85 1.7 4.4000001
1.85 1.7 4.5
1.85 1.7 4.5999999
1.85 1.7 4.6999998
1.85 1.7 4.8000002
1.85 1.7 4.9000001
1.85 1.7 5
1.85 1.7 5.0999999
1.85 1.7 5.1999998
1.85 1.7 5.3000002
1.85 1.7 5.4000001
1.85 1.7 5.5
1.95 1.7 -0.5
1.95 1.7 -0.40000001
1.95 1.7 -0.30000001
1.95 1.7 -0.2
1.95 1.7 -0.1
1.95 1.7 -2.7755576e-17
1.95 1.7 0.1
1.95 1.7 0.2
1.95 1.7 0.30000001
1.95 1.7 0.40000001
1.95 1.7 0.5
1.95 1.7 0.60000002
1.95 1.7 0.69999999
1.95 1.7 0.80000001
1.95 1.7 0.89999998
1.95 1.7 1
1.95 1.7 1.1
1.95 1.7 1.2
1.95 1.7 1.3
1.95 1.7 1.4
1.95 1.7 1.5
1.95 1.7 1.6
1.95 1.7 1.7
1.95 1.7 1.8
1.95 1.7 1.9
1.95 1.7 2
1.95 1.7 2.0999999
1.95 1.7 2.2
1.95 1.7 2.3
1.95 1.7 2.4000001
1.95 1.7 2.5
1.95 1.7 2.5999999
1.95 1.7 2.7
1.95 1.7 2.8
1.95 1.7 2.9000001
1.95 1.7 3
1.95 1.7 3.0999999
1.95 1.7 3.2
1.95 1.7 3.3
1.95 1.7 3.4000001
1.95 1.7 3.5
1.95 1.7 3.5999999
1.95 1.7 3.7
1.95 1.7 3.8
1.95 1.7 3.9000001
1.95 1.7 4
1.95 1.7 4.0999999
1.95 1.7 4.1999998
1.95 1.7 4.3000002
1.95 1.7 4.4000001
1.95 1.7 4.5
1.95 1.7 4.5999999
1.95 1.7 4.6999998
1.95 1.7 4.8000002
1.95 1.7 4.9000001
1.95 1.7 5
1.95 1.7 5.0999999
1.95 1.7 5.1999998
1.95 1.7 5.3000002
1.95 1.7 5.4000001
1.95 1.7 5.5
2.05 1.7 -0.5
2.05 1.7 -0.40000001
2.05 1.7 -0.30000001
2.05 1.7 -0.2
2.05 1.7 -0.1
2.05 1.7 -2.7755576e-17
2.05 1.7 0.1
2.05 1.7 0.2
2.05 1.7 0.30000001
2.05 1.7 0.40000001
2.05 1.7 0.5
2.05 1.7 0.60000002
2.05 1.7 0.69999999
2.05 1.7 0.80000001
2.05 1.7 0.89999998
2.05 1.7 1
2.05 1.7 1.1
2.05 1.7 1.2
2.05 1.7 1.3
2.05 1.7 1.4
2.05 1.7 1.5
2.05 1.7 1.6
2.05 1.7 1.7
2.05 1.7 1.8
2.05 1.7 1.9
2.05 1.7 2
2.05 1.7 2.0999999
2.05 1.7 2.2
2.05 1.7 2.3
2.05 1.7 2.4000001
2.05 1.7 2.5
2.05 1.7 2.5999999
2.05 1.7 2.7
2.05 1.7 2.8
2.05 1.7 2.9000001
2.05 1.7 3
2.05 1.7 3.0999999
2.05 1.7 3.2
2.05 1.7 3.3
2.05 1.7 3.4000001
2.05 1.7 3.5
2.05 1.7 3.5999999
2.05 1.7 3.7
2.05 1.7 3.8
2.05 1.7 3.9000001
2.05 1.7 4
2.05 1.7 4.0999999
2.05 1.7 4.1999998
2.05 1.7 4.3000002
2.05 1.7 4.4000001
2.05 1.7 4.5
2.05 1.7 4.5999999
2.05 1.7 4.6999998
2.05 1.7 4.8000002
2.05 1.7 4.9000001
2.05 1.7 5
2.05 1.7 5.0999999
2.05 1.7 5.1999998
2.05 1.7 5.3000002
2.05 1.7 5.4000001
2.05 1.7 5.5
2.1500001 1.7 -0.5
2.1500001 1.7 -0.40000001
2.1500001 1.7 -0.30000001
2.1500001 1.7 -0.2
2.1500001 1.7 -0.1
2.1500001 1.7 -2.7755576e-17
2.1500001 1.7 0.1
2.1500001 1.7 0.2
2.1500001 1.7 0.30000001
2.1500001 1.7 0.40000001
2.1500001 1.7 0.5
2.1500001 1.7 0.60000002
2.1500001 1.7 0.69999999
2.1500001 1.7 0.80000001
2.1500001 1.7 0.89999998
2.1500001 1.7 1
2.1500001 1.7 1.1
2.1500001 1.7 1.2
2.1500001 1.7 1.3
2.1500001 1.7 1.4
2.1500001 1.7 1.5
2.1500001 1.7 1.6
2.1500001 1.7 1.7
2.1500001 1.7 1.8
2.1500001 1.7 1.9
2.1500001 1.7 2
2.1500001 1.7 2.0999999
2.1500001 1.7 2.2
2.1500001 1.7 2.3
2.1500001 1.7 2.4000001
2.1500001 1.7 2.5
2.1500001 1.7 2.5999999
2.1500001 1.7 2.7
2.1500001 1.7 2.8
2.1500001 1.7 2.9000001
2.1500001 1.7 3
2.1500001 1.7 3.0999999
2.1500001 1.7 3.2
2.1500001 1.7 3.3
2.1500001 1.7 3.4000001
2.1500001 1.7 3.5
2.1500001 1.7 3.5999999
2.1500001 1.7 3.7
2.1500001 1.7 3.8
2.1500001 1.7 3.9000001
2.1500001 1.7 4
2.1500001 1.7 4.0999999
2.1500001 1.7 4.1999998
2.1500001 1.7 4.3000002
2.1500001 1.7 4.4000001
2.1500001 1.7 4.5
2.1500001 1.7 4.5999999
2.1500001 1.7 4.6999998
2.1500001 1.7 4.8000002
2.1500001 1.7 4.9000001
2.1500001 1.7 5
2.1500001 1.7 5.0999999
2.1500001 1.7 5.1999998
2.1500001 1.7 5.3000002
2.1500001 1.7 5.4000001
2.1500001 1.7 5.5
1.85 1.6 -0.5
1.85 1.6 -0.40000001
1.85 1.6 -0.30000001
1.85 1.6 -0.2
1.85 1.6 -0.1
1.85 1.6 -2.7755576e-17
1.85 1.6 0.1
1.85 1.6 0.2
1.85 1.6 0.30000001
1.85 1.6 0.40000001
1.85 1.6 0.5
1.85 1.6 0.60000002
1.85 1.6 0.69999999
1.85 1.6 0.80000001
1.85 1.6 0.89999998
1.85 1.6 1
1.85 1.6 1.1
1.85 1.6 1.2
1.85 1.6 1.3
1.85 1.6 1.4
1.85 1.6 1.5
1.85 1.6 1.6
1.85 1.6 1.7
1.85 1.6 1.8
1.85 1.6 1.9
1.85 1.6 2
1.85 1.6 2.0999999
1.85 1.6 2.2
1.85 1.6 2.3
1.85 1.6 2.4000001
1.85 1.6 2.5
1.85 1.6 2.5999999
1.85 1.6 2.7
1.85 1.6 2.8
1.85 1.6 2.9000001
1.85 1.6 3
1.85 1.6 3.0999999
1.85 1.6 3.2
1.85 1.6 3.3
1.85 1.6 3.4000001
1.85 1.6 3.5
1.85 1.6 3.5999999
1.85 1.6 3.7
1.85 1.6 3.8
1.85 1.6 3.9000001
1.85 1.6 4
1.85 1.6 4.0999999
1.85 1.6 4.1999998
1.85 1.6 4.3000002
1.85 1.6 4.4000001
1.85 1.6 4.5
1.85 1.6 4.5999999
1.85 1.6 4.6999998
1.85 1.6 4.8000002
1.85 1.6 4.9000001
1.85 1.6 5
1.85 1.6 5.0999999
1.85 1.6 5.1999998
1.85 1.6 5.3000002
1.85 1.6 5.4000001
1.85 1.6 5.5
1.95 1.6 -0.5
1.95 1.6 -0.40000001
1.95 1.6 -0.30000001
1.95 1.6 -0.2
1.95 1.6 -0.1
1.95 1.6 -2.7755576e-17
1.95 1.6 0.1
1.95 1.6 0.2
1.95 1.6 0.30000001
1.95 1.6 0.40000001
1.95 1.6 0.5
1.95 1.6 0.60000002
1.95 1.6 0.69999999
1.95 1.6 0.80000001
1.95 1.6 0.89999998
1.95 1.6 1
1.95 1.6 1.1
1.95 1.6 1.2
1.95 1.6 1.3
1.95 1.6 1.4
1.95 1.6 1.5
1.95 1.6 1.6
1.95 1.6 1.7
1.95 1.6 1.8
1.95 1.6 1.9
1.95 1.6 2
1.95 1.6 2.0999999
1.95 1.6 2.2
1.95 1.6 2.3
1.95 1.6 2.4000001
1.95 1.6 2.5
1.95 1.6 2.5999999
1.95 1.6 2.7
1.95 1.6 2.8
1.95 1.6 2.9000001
1.95 1.6 3
1.95 1.6 3.0999999
1.95 1.6 3.2
1.95 1.6 3.3
1.95 1.6 3.4000001
1.95 1.6 3.5
1.95 1.6 3.5999999
1.95 1.6 3.7
1.95 1.6 3.8
1.95 1.6 3.9000001
1.95 1.6 4
1.95 1.6 4.0999999
1.95 1.6 4.1999998
1.95 1.6 4.3000002
1.95 1.6 4.4000001
1.95 1.6 4.5
1.95 1.6 4.5999999
1.95 1.6 4.6999998
1.95 1.6 4.8000002
1.95 1.6 4.9000001
1.95 1.6 5
1.95 1.6 5.0999999
1.95 1.6 5.1999998
1.95 1.6 5.3000002
1.95 1.6 5.4000001
1.95 1.6 5.5
2.05 1.6 -0.5
2.05 1.6 -0.40000001
2.05 1.6 -0.30000001
2.05 1.6 -0.2
2.05 1.6 -0.1
2.05 1.6 -2.7755576e-17
2.05 1.6 0.1
2.05 1.6 0.2
2.05 1.6 0.30000001
2.05 1.6 0.40000001
2.05 1.6 0.5
2.05 1.6 0.60000002
2.05 1.6 0.69999999
2.05 1.6 0.80000001
2.05 1.6 0.89999998
2.05 1.6 1
2.05 1.6 1.1
2.05 1.6 1.2
2.05 1.6 1.3
2.05 1.6 1.4
2.05 1.6 1.5
2.05 1.6 1.6
2.05 1.6 1.7
2.05 1.6 1.8
2.05 1.6 1.9
2.05 1.6 2
2.05 1.6 2.0999999
2.05 1.6 2.2
2.05 1.6 2.3
2.05 1.6 2.4000001
2.05 1.6 2.5
2.05 1.6 2.5999999
2.05 1.6 2.7
2.05 1.6 2.8
2.05 1.6 2.9000001
2.05 1.6 3
2.05 1.6 3.0999999
2.05 1.6 3.2
2.05 1.6 3.3
2.05 1.6 3.4000001
2.05 1.6 3.5
2.05 1.6 3.5999999
2.05 1.6 3.7
2.05 1.6 3.8
2.05 1.6 3.9000001
2.05 1.6 4
2.05 1.6 4.0999999
2.05 1.6 4.1999998
2.05 1.6 4.3000002
2.05 1.6 4.4000001
2.05 1.6 4.5
2.05 1.6 4.5999999
2.05 1.6 4.6999998
2.05 1.6 4.8000002
2.05 1.6 4.9000001
2.05 1.6 5
2.05 1.6 5.0999999
2.05 1.6 5.1999998
2.05 1.6 5.3000002
2.05 1.6 5.4000001
2.05 1.6 5.5
2.1500001 1.6 -0.5
2.1500001 1.6 -0.40000001
2.1500001 1.6 -0.30000001
2.1500001 1.6 -0.2
2.1500001 1.6 -0.1
2.1500001 1.6 -2.7755576e-17
2.1500001 1.6 0.1
2.1500001 1.6 0.2
2.1500001 1.6 0.30000001
2.1500001 1.6 0.40000001
2.1500001 1.6 0.5
2.1500001 1.6 0.60000002
2.1500001 1.6 0.69999999
2.1500001 1.6 0.80000001
2.1500001 1.6 0.89999998
2.1500001 1.6 1
2.1500001 1.6 1.1
2.1500001 1.6 1.2
2.1500001 1.6 1.3
2.1500001 1.6 1.4
2.1500001 1.6 1.5
2.1500001 1.6 1.6
2.1500001 1.6 1.7
2.1500001 1.6 1.8
2.1500001 1.6 1.9
2.1500001 1.6 2
2.1500001 1.6 2.0999999
2.1500001 1.6 2.2
2.1500001 1.6 2.3
2.1500001 1.6 2.4000001
2.1500001 1.6 2.5
2.1500001 1.6 2.5999999
2.1500001 1.6 2.7
2.1500001 1.6 2.8
2.1500001 1.6 2.9000001
2.1500001 1.6 3
2.1500001 1.6 3.0999999
2.1500001 1.6 3.2
2.1500001 1.6 3.3
2.1500001 1.6 3.4000001
2.1500001 1.6 3.5
2.1500001 1.6 3.5999999
2.1500001 1.6 3.7
2.1500001 1.6 3.8
2.1500001 1.6 3.9000001
2.1500001 1.6 4
2.1500001 1.6 4.0999999
2.1500001 1.6 4.1999998
2.1500001 1.6 4.3000002
2.1500001 1.6 4.4000001
2.1500001 1.6 4.5
2.1500001 1.6 4.5999999
2.1500001 1.6 4.6999998
2.1500001 1.6 4.8000002
2.1500001 1.6 4.9000001
2.1500001 1.6 5
2.1500001 1.6 5.0999999
2.1500001 1.6 5.1999998
2.1500001 1.6 5.3000002
2.1500001 1.6 5.4000001
2.1500001 1.6 5.5
1.85 1.5 -0.5
1.85 1.5 -0.40000001
1.85 1.5 -0.30000001
1.85 1.5 -0.2
1.85 1.5 -0.1
1.85 1.5 -2.7755576e-17
1.85 1.5 0.1
1.85 1.5 0.2
1.85 1.5 0.30000001
1.85 1.5 0.40000001
1.85 1.5 0.5
1.85 1.5 0.60000002
1.85 1.5 0.69999999
1.85 1.5 0.80000001
1.85 1.5 0.89999998
1.85 1.5 1
1.85 1.5 1.1
1.85 1.5 1.2
1.85 1.5 1.3
1.85 1.5 1.4
1.85 1.5 1.5
1.85 1.5 1.6
1.85 1.5 1.7
1.85 1.5 1.8
1.85 1.5 1.9
1.85 1.5 2
1.85 1.5 2.0999999
1.85 1.5 2.2
1.85 1.5 2.3
1.85 1.5 2.4000001
1.85 1.5 2.5
1.85 1.5 2.5999999
1.85 1.5 2.7
1.85 1.5 2.8
1.85 1.5 2.9000001
1.85 1.5 3
1.85 1.5 3.0999999
1.85 1.5 3.2
1.85 1.5 3.3
1.85 1.5 3.4000001
1.85 1.5 3.5
1.85 1.5 3.5999999
1.85 1.5 3.7
1.85 1.5 3.8
1.85 1.5 3.9000001
1.85 1.5 4
1.85 1.5 4.0999999
1.85 1.5 4.1999998
1.85 1.5 4.3000002
1.85 1.5 4.4000001
1.85 1.5 4.5
1.85 1.5 4.5999999
1.85 1.5 4.6999998
1.85 1.5 4.8000002
1.85 1.5 4.9000001
1.85 1.5 5
1.85 1.5 5.0999999
1.85 1.5 5.1999998
1.85 1.5 5.3000002
1.85 1.5 5.4000001
1.85 1.5 5.5
1.95 1.5 -0.5
1.95 1.5 -0.40000001
1.95 1.5 -0.30000001
1.95 1.5 -0.2
1.95 1.5 -0.1
1.95 1.5 -2.7755576e-17
1.95 1.5 0.1
1.95 1.5 0.2
1.95 1.5 0.30000001
1.95 1.5 0.40000001
1.95 1.5 0.5
1.95 1.5 0.60000002
1.95 1.5 0.69999999
1.95 1.5 0.80000001
1.95 1.5 0.89999998
1.95 1.5 1
1.95 1.5 1.1
1.95 1.5 1.2
1.95 1.5 1.3
1.95 1.5 1.4
1.95 1.5 1.5
1.95 1.5 1.6
1.95 1.5 1.7
1.95 1.5 1.8
1.95 1.5 1.9
1.95 1.5 2
1.95 1.5 2.0999999
1.95 1.5 2.2
1.95 1.5 2.3
1.95 1.5 2.4000001
1.95 1.5 2.5
1.95 1.5 2.5999999
1.95 1.5 2.7
1.95 1.5 2.8
1.95 1.5 2.9000001
1.95 1.5 3
1.95 1.5 3.0999999
1.95 1.5 3.2
1.95 1.5 3.3
1.95 1.5 3.4000001
1.95 1.5 3.5
1.95 1.5 3.5999999
1.95 1.5 3.7
1.95 1.5 3.8
1.95 1.5 3.9000001
1.95 1.5 4
1.95 1.5 4.0999999
1.95 1.5 4.1999998
1.95 1.5 4.3000002
1.95 1.5 4.4000001
1.95 1.5 4.5
1.95 1.5 4.5999999
1.95 1.5 4.6999998
1.95 1.5 4.8000002
1.95 1.5 4.9000001
1.95 1.5 5
1.95 1.5 5.0999999
1.95 1.5 5.1999998
1.95 1.5 5.3000002
1.95 1.5 5.4000001
1.95 1.5 5.5
2.05 1.5 -0.5
2.05 1.5 -0.40000001
2.05 1.5 -0.30000001
2.05 1.5 -0.2
2.05 1.5 -0.1
2.05 1.5 -2.7755576e-17
2.05 1.5 0.1
2.05 1.5 0.2
2.05 1.5 0.30000001
2.05 1.5 0.40000001
2.05 1.5 0.5
2.05 1.5 0.60000002
2.05 1.5 0.69999999
2.05 1.5 0.80000001
2.05 1.5 0.89999998
2.05 1.5 1
2.05 1.5 1.1
2.05 1.5 1.2
2.05 1.5 1.3
2.05 1.5 1.4
2.05 1.5 1.5
2.05 1.5 1.6
2.05 1.5 1.7
2.05 1.5 1.8
2.05 1.5 1.9
2.05 1.5 2
2.05 1.5 2.0999999
2.05 1.5 2.2
2.05 1.5 2.3
2.05 1.5 2.4000001
2.05 1.5 2.5
2.05 1.5 2.5999999
2.05 1.5 2.7
2.05 1.5 2.8
2.05 1.5 2.9000001
2.05 1.5 3
2.05 1.5 3.0999999
2.05 1.5 3.2
2.05 1.5 3.3
2.05 1.5 3.4000001
2.05 1.5 3.5
2.05 1.5 3.5999999
2.05 1.5 3.7
2.05 1.5 3.8
2.05 1.5 3.9000001
2.05 1.5 4
2.05 1.5 4.0999999
2.05 1.5 4.1999998
2.05 1.5 4.3000002
2.05 1.5 4.4000001
2.05 1.5 4.5
2.05 1.5 4.5999999
2.05 1.5 4.6999998
2.05 1.5 4.8000002
2.05 1.5 4.9000001
2.05 1.5 5
2.05 1.5 5.0999999
2.05 1.5 5.1999998
2.05 1.5 5.3000002
2.05 1.5 5.4000001
2.05 1.5 5.5
2.1500001 1.5 -0.5
2.1500001 1.5 -0.40000001
2.1500001 1.5 -0.30000001
2.1500001 1.5 -0.2
2.1500001 1.5 -0.1
2.1500001 1.5 -2.7755576e-17
2.1500001 1.5 0.1
2.1500001 1.5 0.2
2.1500001 1.5 0.30000001
2.1500001 1.5 0.40000001
2.1500001 1.5 0.5
2.1500001 1.5 0.60000002
2.1500001 1.5 0.69999999
2.1500001 1.5 0.80000001
2.1500001 1.5 0.89999998
2.1500001 1.5 1
2.1500001 1.5 1.1
2.1500001 1.5 1.2
2.1500001 1.5 1.3
2.1500001 1.5 1.4
2.1500001 1.5 1.5
2.1500001 1.5 1.6
2.1500001 1.5 1.7
2.1500001 1.5 1.8
2.1500001 1.5 1.9
2.1500001 1.5 2
2.1500001 1.5 2.0999999
2.1500001 1.5 2.2
2.1500001 1.5 2.3
2.1500001 1.5 2.4000001
2.1500001 1.5 2.5
2.1500001 1.5 2.5999999
2.1500001 1.5 2.7
2.1500001 1.5 2.8
2.1500001 1.5 2.9000001
2.1500001 1.5 3
2.1500001 1.5 3.0999999
2.1500001 1.5 3.2
2.1500001 1.5 3.3
2.1500001 1.5 3.4000001
2.1500001 1.5 3.5
2.1500001 1.5 3.5999999
2.1500001 1.5 3.7
2.1500001 1.5 3.8
2.1500001 1.5 3.9000001
2.1500001 1.5 4
2.1500001 1.5 4.0999999
2.1500001 1.5 4.1999998
2.1500001 1.5 4.3000002
2.1500001 1.5 4.4000001
2.1500001 1.5 4.5
2.1500001 1.5 4.5999999
2.1500001 1.5 4.6999998
2.1500001 1.5 4.8000002
2.1500001 1.5 4.9000001
2.1500001 1.5 5
2.1500001 1.5 5.0999999
2.1500001 1.5 5.1999998
2.1500001 1.5 5.3000002
2.1500001 1.5 5.4000001
2.1500001 1.5 5.5
1.85 1.4 -0.5
1.85 1.4 -0.40000001
1.85 1.4 -0.30000001
1.85 1.4 -0.2
1.85 1.4 -0.1
1.85 1.4 -2.7755576e-17
1.85 1.4 0.1
1.85 1.4 0.2
1.85 1.4 0.30000001
1.85 1.4 0.40000001
1.85 1.4 0.5
1.85 1.4 0.60000002
1.85 1.4 0.69999999
1.85 1.4 0.80000001
1.85 1.4 0.89999998
1.85 1.4 1
1.85 1.4 1.1
1.85 1.4 1.2
1.85 1.4 1.3
1.85 1.4 1.4
1.85 1.4 1.5
1.85 1.4 1.6
1.85 1.4 1.7
1.85 1.4 1.8
1.85 1.4 1.9
1.85 1.4 2
1.85 1.4 2.0999999
1.85 1.4 2.2
1.85 1.4 2.3
1.85 1.4 2.4000001
1.85 1.4 2.5
1.85 1.4 2.5999999
1.85 1.4 2.7
1.85 1.4 2.8
1.85 1.4 2.9000001
1.85 1.4 3
1.85 1.4 3.0999999
1.85 1.4 3.2
1.85 1.4 3.3
1.85 1.4 3.4000001
1.85 1.4 3.5
1.85 1.4 3.5999999
1.85 1.4 3.7
1.85 1.4 3.8
1.85 1.4 3.9000001
1.85 1.4 4
1.85 1.4 4.0999999
1.85 1.4 4.1999998
1.85 1.4 4.3000002
1.85 1.4 4.4000001
1.85 1.4 4.5
1.85 1.4 4.5999999
1.85 1.4 4.6999998
1.85 1.4 4.8000002
1.85 1.4 4.9000001
1.85 1.4 5
1.85 1.4 5.0999999
1.85 1.4 5.1999998
1.85 1.4 5.3000002
1.85 1.4 5.4000001
1.85 1.4 5.5
1.95 1.4 -0.5
1.95 1.4 -0.40000001
1.95 1.4 -0.30000001
1.95 1.4 -0.2
1.95 1.4 -0.1
1.95 1.4 -2.7755576e-17
1.95 1.4 0.1
1.95 1.4 0.2
1.95 1.4 0.30000001
1.95 1.4 0.40000001
1.95 1.4 0.5
1.95 1.4 0.60000002
1.95 1.4 0.69999999
1.95 1.4 0.80000001
1.95 1.4 0.89999998
1.95 1.4 1
1.95 1.4 1.1
1.95 1.4 1.2
1.95 1.4 1.3
1.95 1.4 1.4
1.95 1.4 1.5
1.95 1.4 1.6
1.95 1.4 1.7
1.95 1.4 1.8
1.95 1.4 1.9
1.95 1.4 2
1.95 1.4 2.0999999
1.95 1.4 2.2
1.95 1.4 2.3
1.95 1.4 2.4000001
1.95 1.4 2.5
1.95 1.4 2.5999999
1.95 1.4 2.7
1.95 1.4 2.8
1.95 1.4 2.9000001
1.95 1.4 3
1.95 1.4 3.0999999
1.95 1.4 3.2
1.95 1.4 3.3
1.95 1.4 3.4000001
1.95 1.4 3.5
1.95 1.4 3.5999999
1.95 1.4 3.7
1.95 1.4 3.8
1.95 1.4 3.9000001
1.95 1.4 4
1.95 1.4 4.0999999
1.95 1.4 4.1999998
1.95 1.4 4.3000002
1.95 1.4 4.4000001
1.95 1.4 4.5
1.95 1.4 4.5999999
1.95 1.4 4.6999998
1.95 1.4 4.8000002
1.95 1.4 4.9000001
1.95 1.4 5
1.95 1.4 5.0999999
1.95 1.4 5.1999998
1.95 1.4 5.3000002
1.95 1.4 5.4000001
1.95 1.4 5.5
2.05 1.4 -0.5
2.05 1.4 -0.40000001
2.05 1.4 -0.30000001
2.05 1.4 -0.2
2.05 1.4 -0.1
2.05 1.4 -2.7755576e-17
2.05 1.4 0.1
2.05 1.4 0.2
2.05 1.4 0.30000001
2.05 1.4 0.40000001
2.05 1.4 0.5
2.05 1.4 0.60000002
2.05 1.4 0.69999999
2.05 1.4 0.80000001
2.05 1.4 0.89999998
2.05 1.4 1
2.05 1.4 1.1
2.05 1.4 1.2
2.05 1.4 1.3
2.05 1.4 1.4
2.05 1.4 1.5
2.05 1.4 1.6
2.05 1.4 1.7
2.05 1.4 1.8
2.05 1.4 1.9
2.05 1.4 2
2.05 1.4 2.0999999
2.05 1.4 2.2
2.05 1.4 2.3
2.05 1.4 2.4000001
2.05 1.4 2.5
2.05 1.4 2.5999999
2.05 1.4 2.7
2.05 1.4 2.8
2.05 1.4 2.9000001
2.05 1.4 3
2.05 1.4 3.0999999
2.05 1.4 3.2
2.05 1.4 3.3
2.05 1.4 3.4000001
2.05 1.4 3.5
2.05 1.4 3.5999999
2.05 1.4 3.7
2.05 1.4 3.8
2.05 1.4 3.9000001
2.05 1.4 4
2.05 1.4 4.0999999
2.05 1.4 4.1999998
2.05 1.4 4.3000002
2.05 1.4 4.4000001
2.05 1.4 4.5
2.05 1.4 4.5999999
2.05 1.4 4.6999998
2.05 1.4 4.8000002
2.05 1.4 4.9000001
2.05 1.4 5
2.05 1.4 5.0999999
2.05 1.4 5.1999998
2.05 1.4 5.3000002
2.05 1.4 5.4000001
2.05 1.4 5.5
2.1500001 1.4 -0.5
2.1500001 1.4 -0.40000001
2.1500001 1.4 -0.30000001
2.1500001 1.4 -0.2
2.1500001 1.4 -0.1
2.1500001 1.4 -2.7755576e-17
2.1500001 1.4 0.1
2.1500001 1.4 0.2
2.1500001 1.4 0.30000001
2.1500001 1.4 0.40000001
2.1500001 1.4 0.5
2.1500001 1.4 0.60000002
2.1500001 1.4 0.69999999
2.1500001 1.4 0.80000001
2.1500001 1.4 0.89999998
2.1500001 1.4 1
2.1500001 1.4 1.1
2.1500001 1.4 1.2
2.1500001 1.4 1.3
2.1500001 1.4 1.4
2.1500001 1.4 1.5
2.1500001 1.4 1.6
2.1500001 1.4 1.7
2.1500001 1.4 1.8
2.1500001 1.4 1.9
2.1500001 1.4 2
2.1500001 1.4 2.0999999
2.1500001 1.4 2.2
2.1500001 1.4 2.3
2.1500001 1.4 2.4000001
2.1500001 1.4 2.5
2.1500001 1.4 2.5999999
2.1500001 1.4 2.7
2.1500001 1.4 2.8
2.1500001 1.4 2.9000001
2.1500001 1.4 3
2.1500001 1.4 3.0999999
2.1500001 1.4 3.2
2.1500001 1.4 3.3
2.1500001 1.4 3.4000001
2.1500001 1.4 3.5
2.1500001 1.4 3.5999999
2.1500001 1.4 3.7
2.1500001 1.4 3.8
2.1500001 1.4 3.9000001
2.1500001 1.4 4
2.1500001 1.4 4.0999999
2.1500001 1.4 4.1999998
2.1500001 1.4 4.3000002
2.1500001 1.4 4.4000001
2.1500001 1.4 4.5
2.1500001 1.4 4.5999999
2.1500001 1.4 4.6999998
2.1500001 1.4 4.8000002
2.1500001 1.4 4.9000001
2.1500001 1.4 5
2.1500001 1.4 5.0999999
2.1500001 1.4 5.1999998
2.1500001 1.4 5.3000002
2.1500001 1.4 5.4000001
2.1500001 1.4 5.5
1.85 1.3 -0.5
1.85 1.3 -0.40000001
1.85 1.3 -0.30000001
1.85 1.3 -0.2
1.85 1.3 -0.1
1.85 1.3 -2.7755576e-17
1.85 1.3 0.1
1.85 1.3 0.2
1.85 1.3 0.30000001
1.85 1.3 0.40000001
1.85 1.3 0.5
1.85 1.3 0.60000002
1.85 1.3 0.69999999
1.85 1.3 0.80000001
1.85 1.3 0.89999998
1.85 1.3 1
1.85 1.3 1.1
1.85 1.3 1.2
1.85 1.3 1.3
1.85 1.3 1.4
1.85 1.3 1.5
1.85 1.3 1.6
1.85 1.3 1.7
1.85 1.3 1.8
1.85 1.3 1.9
1.85 1.3 2
1.85 1.3 2.0999999
1.85 1.3 2.2
1.85 1.3 2.3
1.85 1.3 2.4000001
1.85 1.3 2.5
1.85 1.3 2.5999999
1.85 1.3 2.7
1.85 1.3 2.8
1.85 1.3 2.9000001
1.85 1.3 3
1.85 1.3 3.0999999
1.85 1.3 3.2
1.85 1.3 3.3
1.85 1.3 3.4000001
1.85 1.3 3.5
1.85 1.3 3.5999999
1.85 1.3 3.7
1.85 1.3 3.8
1.85 1.3 3.9000001
1.85 1.3 4
1.85 1.3 4.0999999
1.85 1.3 4.1999998
1.85 1.3 4.3000002
1.85 1.3 4.4000001
1.85 1.3 4.5
1.85 1.3 4.5999999
1.85 1.3 4.6999998
1.85 1.3 4.8000002
1.85 1.3 4.9000001
1.85 1.3 5
1.85 1.3 5.0999999
1.85 1.3 5.1999998
1.85 1.3 5.3000002
1.85 1.3 5.4000001
1.85 1.3 5.5
1.95 1.3 -0.5
1.95 1.3 -0.40000001
1.95 1.3 -0.30000001
1.95 1.3 -0.2
1.95 1.3 -0.1
1.95 1.3 -2.7755576e-17
1.95 1.3 0.1
1.95 1.3 0.2
1.95 1.3 0.30000001
1.95 1.3 0.40000001
1.95 1.3 0.5
1.95 1.3 0.60000002
1.95 1.3 0.69999999
1.95 1.3 0.80000001
1.95 1.3 0.89999998
1.95 1.3 1
1.95 1.3 1.1
1.95 1.3 1.2
1.95 1.3 1.3
1.95 1.3 1.4
1.95 1.3 1.5
1.95 1.3 1.6
1.95 1.3 1.7
1.95 1.3 1.8
1.95 1.3 1.9
1.95 1.3 2
1.95 1.3 2.0999999
1.95 1.3 2.2
1.95 1.3 2.3
1.95 1.3 2.4000001
1.95 1.3 2.5
1.95 1.3 2.5999999
1.95 1.3 2.7
1.95 1.3 2.8
1.95 1.3 2.9000001
1.95 1.3 3
1.95 1.3 3.0999999
1.95 1.3 3.2
1.95 1.3 3.3
1.95 1.3 3.4000001
1.95 1.3 3.5
1.95 1.3 3.5999999
1.95 1.3 3.7
1.95 1.3 3.8
1.95 1.3 3.9000001
1.95 1.3 4
1.95 1.3 4.0999999
1.95 1.3 4.1999998
1.95 1.3 4.3000002
1.95 1.3 4.4000001
1.95 1.3 4.5
1.95 1.3 4.5999999
1.95 1.3 4.6999998
1.95 1.3 4.8000002
1.95 1.3 4.9000001
1.95 1.3 5
1.95 1.3 5.0999999
1.95 1.3 5.1999998
1.95 1.3 5.3000002
1.95 1.3 5.4000001
1.95 1.3 5.5
2.05 1.3 -0.5
2.05 1.3 -0.40000001
2.05 1.3 -0.30000001
2.05 1.3 -0.2
2.05 1.3 -0.1
2.05 1.3 -2.7755576e-17
2.05 1.3 0.1
2.05 1.3 0.2
2.05 1.3 0.30000001
2.05 1.3 0.40000001
2.05 1.3 0.5
2.05 1.3 0.60000002
2.05 1.3 0.69999999
2.05 1.3 0.80000001
2.05 1.3 0.89999998
2.05 1.3 1
2.05 1.3 1.1
2.05 1.3 1.2
2.05 1.3 1.3
2.05 1.3 1.4
2.05 1.3 1.5
2.05 1.3 1.6
2.05 1.3 1.7
2.05 1.3 1.8
2.05 1.3 1.9
2.05 1.3 2
2.05 1.3 2.0999999
2.05 1.3 2.2
2.05 1.3 2.3
2.05 1.3 2.4000001
2.05 1.3 2.5
2.05 1.3 2.5999999
2.05 1.3 2.7
2.05 1.3 2.8
2.05 1.3 2.9000001
2.05 1.3 3
2.05 1.3 3.0999999
2.05 1.3 3.2
2.05 1.3 3.3
2.05 1.3 3.4000001
2.05 1.3 3.5
2.05 1.3 3.5999999
2.05 1.3 3.7
2.05 1.3 3.8
2.05 1.3 3.9000001
2.05 1.3 4
2.05 1.3 4.0999999
2.05 1.3 4.1999998
2.05 1.3 4.3000002
2.05 1.3 4.4000001
2.05 1.3 4.5
2.05 1.3 4.5999999
2.05 1.3 4.6999998
2.05 1.3 4.8000002
2.05 1.3 4.9000001
2.05 1.3 5
2.05 1.3 5.0999999
2.05 1.3 5.1999998
2.05 1.3 5.3000002
2.05 1.3 5.4000001
2.05 1.3 5.5
2.1500001 1.3 -0.5
2.1500001 1.3 -0.40000001
2.1500001 1.3 -0.30000001
2.1500001 1.3 -0.2
2.1500001 1.3 -0.1
2.1500001 1.3 -2.7755576e-17
2.1500001 1.3 0.1
2.1500001 1.3 0.2
2.1500001 1.3 0.30000001
2.1500001 1.3 0.40000001
2.1500001 1.3 0.5
2.1500001 1.3 0.60000002
2.1500001 1.3 0.69999999
2.1500001 1.3 0.80000001
2.1500001 1.3 0.89999998
2.1500001 1.3 1
2.1500001 1.3 1.1
2.1500001 1.3 1.2
2.1500001 1.3 1.3
2.1500001 1.3 1.4
2.1500001 1.3 1.5
2.1500001 1.3 1.6
2.1500001 1.3 1.7
2.1500001 1.3 1.8
2.1500001 1.3 1.9
2.1500001 1.3 2
2.1500001 1.3 2.0999999
2.1500001 1.3 2.2
2.1500001 1.3 2.3
2.1500001 1.3 2.4000001
2.1500001 1.3 2.5
2.1500001 1.3 2.5999999
2.1500001 1.3 2.7
2.1500001 1.3 2.8
2.1500001 1.3 2.9000001
2.1500001 1.3 3
2.1500001 1.3 3.0999999
2.1500001 1.3 3.2
2.1500001 1.3 3.3
2.1500001 1.3 3.4000001
2.1500001 1.3 3.5
2.1500001 1.3 3.5999999
2.1500001 1.3 3.7
2.1500001 1.3 3.8
2.1500001 1.3 3.9000001
2.1500001 1.3 4
2.1500001 1.3 4.0999999
2.1500001 1.3 4.1999998
2.1500001 1.3 4.3000002
2.1500001 1.3 4.4000001
2.1500001 1.3 4.5
2.1500001 1.3 4.5999999
2.1500001 1.3 4.6999998
2.1500001 1.3 4.8000002
2.1500001 1.3 4.9000001
2.1500001 1.3 5
2.1500001 1.3 5.0999999
2.1500001 1.3 5.1999998
2.1500001 1.3 5.3000002
2.1500001 1.3 5.4000001
2.1500001 1.3 5.5
1.85 1.2 -0.5
1.85 1.2 -0.40000001
1.85 1.2 -0.30000001
1.85 1.2 -0.2
1.85 1.2 -0.1
1.85 1.2 -2.7755576e-17
1.85 1.2 0.1
1.85 1.2 0.2
1.85 1.2 0.30000001
1.85 1.2 0.40000001
1.85 1.2 0.5
1.85 1.2 0.60000002
1.85 1.2 0.69999999
1.85 1.2 0.80000001
1.85 1.2 0.89999998
1.85 1.2 1
1.85 1.2 1.1
1.85 1.2 1.2
1.85 1.2 1.3
1.85 1.2 1.4
1.85 1.2 1.5
1.85 1.2 1.6
1.85 1.2 1.7
1.85 1.2 1.8
1.85 1.2 1.9
1.85 1.2 2
1.85 1.2 2.0999999
1.85 1.2 2.2
1.85 1.2 2.3
1.85 1.2 2.4000001
1.85 1.2 2.5
1.85 1.2 2.5999999
1.85 1.2 2.7
1.85 1.2 2.8
1.85 1.2 2.9000001
1.85 1.2 3
1.85 1.2 3.0999999
1.85 1.2 3.2
1.85 1.2 3.3
1.85 1.2 3.4000001
1.85 1.2 3.5
1.85 1.2 3.5999999
1.85 1.2 3.7
1.85 1.2 3.8
1.85 1.2 3.9000001
1.85 1.2 4
1.85 1.2 4.0999999
1.85 1.2 4.1999998
1.85 1.2 4.3000002
1.85 1.2 4.4000001
1.85 1.2 4.5
1.85 1.2 4.5999999
1.85 1.2 4.6999998
1.85 1.2 4.8000002
1.85 1.2 4.9000001
1.85 1.2 5
1.85 1.2 5.0999999
1.85 1.2 5.1999998
1.85 1.2 5.3000002
1.85 1.2 5.4000001
1.85 1.2 5.5
1.95 1.2 -0.5
1.95 1.2 -0.40000001
1.95 1.2 -0.30000001
1.95 1.2 -0.2
1.95 1.2 -0.1
1.95 1.2 -2.7755576e-17
1.95 1.2 0.1
1.95 1.2 0.2
1.95 1.2 0.30000001
1.95 1.2 0.40000001
1.95 1.2 0.5
1.95 1.2 0.60000002
1.95 1.2 0.69999999
1.95 1.2 0.80000001
1.95 1.2 0.89999998
1.95 1.2 1
1.95 1.2 1.1
1.95 1.2 1.2
1.95 1.2 1.3
1.95 1.2 1.4
1.95 1.2 1.5
1.95 1.2 1.6
1.95 1.2 1.7
1.95 1.2 1.8
1.95 1.2 1.9
1.95 1.2 2
1.95 1.2 2.0999999
1.95 1.2 2.2
1.95 1.2 2.3
1.95 1.2 2.4000001
1.95 1.2 2.5
1.95 1.2 2.5999999
1.95 1.2 2.7
1.95 1.2 2.8
1.95 1.2 2.9000001
1.95 1.2 3
1.95 1.2 3.0999999
1.95 1.2 3.2
1.95 1.2 3.3
1.95 1.2 3.4000001
1.95 1.2 3.5
1.95 1.2 3.5999999
1.95 1.2 3.7
1.95 1.2 3.8
1.95 1.2 3.9000001
1.95 1.2 4
1.95 1.2 4.0999999
1.95 1.2 4.1999998
1.95 1.2 4.3000002
1.95 1.2 4.4000001
1.95 1.2 4.5
1.95 1.2 4.5999999
1.95 1.2 4.6999998
1.95 1.2 4.8000002
1.95 1.2 4.9000001
1.95 1.2 5
1.95 1.2 5.0999999
1.95 1.2 5.1999998
1.95 1.2 5.3000002
1.95 1.2 5.4000001
1.95 1.2 5.5
2.05 1.2 -0.5
2.05 1.2 -0.40000001
2.05 1.2 -0.30000001
2.05 1.2 -0.2
2.05 1.2 -0.1
2.05 1.2 -2.7755576e-17
2.05 1.2 0.1
2.05 1.2 0.2
2.05 1.2 0.30000001
2.05 1.2 0.40000001
2.05 1.2 0.5
2.05 1.2 0.60000002
2.05 1.2 0.69999999
2.05 1.2 0.80000001
2.05 1.2 0.89999998
2.05 1.2 1
2.05 1.2 1.1
2.05 1.2 1.2
2.05 1.2 1.3
2.05 1.2 1.4
2.05 1.2 1.5
2.05 1.2 1.6
2.05 1.2 1.7
2.05 1.2 1.8
2.05 1.2 1.9
2.05 1.2 2
2.05 1.2 2.0999999
2.05 1.2 2.2
2.05 1.2 2.3
2.05 1.2 2.4000001
2.05 1.2 2.5
2.05 1.2 2.5999999
2.05 1.2 2.7
2.05 1.2 2.8
2.05 1.2 2.9000001
2.05 1.2 3
2.05 1.2 3.0999999
2.05 1.2 3.2
2.05 1.2 3.3
2.05 1.2 3.4000001
2.05 1.2 3.5
2.05 1.2 3.5999999
2.05 1.2 3.7
2.05 1.2 3.8
2.05 1.2 3.9000001
2.05 1.2 4
2.05 1.2 4.0999999
2.05 1.2 4.1999998
2.05 1.2 4.3000002
2.05 1.2 4.4000001
2.05 1.2 4.5
2.05 1.2 4.5999999
2.05 1.2 4.6999998
2.05 1.2 4.8000002
2.05 1.2 4.9000001
2.05 1.2 5
2.05 1.2 5.0999999
2.05 1.2 5.1999998
2.05 1.2 5.3000002
2.05 1.2 5.4000001
2.05 1.2 5.5
2.1500001 1.2 -0.5
2.1500001 1.2 -0.40000001
2.1500001 1.2 -0.30000001
2.1500001 1.2 -0.2
2.1500001 1.2 -0.1
2.1500001 1.2 -2.7755576e-17
2.1500001 1.2 0.1
2.1500001 1.2 0.2
2.1500001 1.2 0.30000001
2.1500001 1.2 0.40000001
2.1500001 1.2 0.5
2.1500001 1.2 0.60000002
2.1500001 1.2 0.69999999
2.1500001 1.2 0.80000001
2.1500001 1.2 0.89999998
2.1500001 1.2 1
2.1500001 1.2 1.1
2.1500001 1.2 1.2
2.1500001 1.2 1.3
2.1500001 1.2 1.4
2.1500001 1.2 1.5
2.1500001 1.2 1.6
2.1500001 1.2 1.7
2.1500001 1.2 1.8
2.1500001 1.2 1.9
2.1500001 1.2 2
2.1500001 1.2 2.0999999
2.1500001 1.2 2.2
2.1500001 1.2 2.3
2.1500001 1.2 2.4000001
2.1500001 1.2 2.5
2.1500001 1.2 2.5999999
2.1500001 1.2 2.7
2.1500001 1.2 2.8
2.1500001 1.2 2.9000001
2.1500001 1.2 3
2.1500001 1.2 3.0999999
2.1500001 1.2 3.2
2.1500001 1.2 3.3
2.1500001 1.2 3.4000001
2.1500001 1.2 3.5
2.1500001 1.2 3.5999999
2.1500001 1.2 3.7
2.1500001 1.2 3.8
2.1500001 1.2 3.9000001
2.1500001 1.2 4
2.1500001 1.2 4.0999999
2.1500001 1.2 4.1999998
2.1500001 1.2 4.3000002
2.1500001 1.2 4.4000001
2.1500001 1.2 4.5
2.1500001 1.2 4.5999999
2.1500001 1.2 4.6999998
2.1500001 1.2 4.8000002
2.1500001 1.2 4.9000001
2.1500001 1.2 5
2.1500001 1.2 5.0999999
2.1500001 1.2 5.1999998
2.1500001 1.2 5.3000002
2.1500001 1.2 5.4000001
2.1500001 1.2 5.5
1.85 1.1 -0.5
1.85 1.1 -0.40000001
1.85 1.1 -0.30000001
1.85 1.1 -0.2
1.85 1.1 -0.1
1.85 1.1 -2.7755576e-17
1.85 1.1 0.1
1.85 1.1 0.2
1.85 1.1 0.30000001
1.85 1.1 0.40000001
1.85 1.1 0.5
1.85 1.1 0.60000002
1.85 1.1 0.69999999
1.85 1.1 0.80000001
1.85 1.1 0.89999998
1.85 1.1 1
1.85 1.1 1.1
1.85 1.1 1.2
1.85 1.1 1.3
1.85 1.1 1.4
1.85 1.1 1.5
1.85 1.1 1.6
1.85 1.1 1.7
1.85 1.1 1.8
1.85 1.1 1.9
1.85 1.1 2
1.85 1.1 2.0999999
1.85 1.1 2.2
1.85 1.1 2.3
1.85 1.1 2.4000001
1.85 1.1 2.5
1.85 1.1 2.5999999
1.85 1.1 2.7
1.85 1.1 2.8
1.85 1.1 2.9000001
1.85 1.1 3
1.85 1.1 3.0999999
1.85 1.1 3.2
1.85 1.1 3.3
1.85 1.1 3.4000001
1.85 1.1 3.5
1.85 1.1 3.5999999
1.85 1.1 3.7
1.85 1.1 3.8
1.85 1.1 3.9000001
1.85 1.1 4
1.85 1.1 4.0999999
1.85 1.1 4.1999998
1.85 1.1 4.3000002
1.85 1.1 4.4000001
1.85 1.1 4.5
1.85 1.1 4.5999999
1.85 1.1 4.6999998
1.85 1.1 4.8000002
1.85 1.1 4.9000001
1.85 1.1 5
1.85 1.1 5.0999999
1.85 1.1 5.1999998
1.85 1.1 5.3000002
1.85 1.1 5.4000001
1.85 1.1 5.5
1.95 1.1 -0.5
1.95 1.1 -0.40000001
1.95 1.1 -0.30000001
1.95 1.1 -0.2
1.95 1.1 -0.1
1.95 1.1 -2.7755576e-17
1.95 1.1 0.1
1.95 1.1 0.2
1.95 1.1 0.30000001
1.95 1.1 0.40000001
1.95 1.1 0.5
1.95 1.1 0.60000002
1.95 1.1 0.69999999
1.95 1.1 0.80000001
1.95 1.1 0.89999998
1.95 1.1 1
1.95 1.1 1.1
1.95 1.1 1.2
1.95 1.1 1.3
1.95 1.1 1.4
1.95 1.1 1.5
1.95 1.1 1.6
1.95 1.1 1.7
1.95 1.1 1.8
1.95 1.1 1.9
1.95 1.1 2
1.95 1.1 2.0999999
1.95 1.1 2.2
1.95 1.1 2.3
1.95 1.1 2.4000001
1.95 1.1 2.5
1.95 1.1 2.5999999
1.95 1.1 2.7
1.95 1.1 2.8
1.95 1.1 2.9000001
1.95 1.1 3
1.95 1.1 3.0999999
1.95 1.1 3.2
1.95 1.1 3.3
1.95 1.1 3.4000001
1.95 1.1 3.5
1.95 1.1 3.5999999
1.95 1.1 3.7
1.95 1.1 3.8
1.95 1.1 3.9000001
1.95 1.1 4
1.95 1.1 4.0999999
1.95 1.1 4.1999998
1.95 1.1 4.3000002
1.95 1.1 4.4000001
1.95 1.1 4.5
1.95 1.1 4.5999999
1.95 1.1 4.6999998
1.95 1.1 4.8000002
1.95 1.1 4.9000001
1.95 1.1 5
1.95 1.1 5.0999999
1.95 1.1 5.1999998
1.95 1.1 5.3000002
1.95 1.1 5.4000001
1.95 1.1 5.5
2.05 1.1 -0.5
2.05 1.1 -0.40000001
2.05 1.1 -0.30000001
2.05 1.1 -0.2
2.05 1.1 -0.1
2.05 1.1 -2.7755576e-17
2.05 1.1 0.1
2.05 1.1 0.2
2.05 1.1 0.30000001
2.05 1.1 0.40000001
2.05 1.1 0.5
2.05 1.1 0.60000002
2.05 1.1 0.69999999
2.05 1.1 0.80000001
2.05 1.1 0.89999998
2.05 1.1 1
2.05 1.1 1.1
2.05 1.1 1.2
2.05 1.1 1.3
2.05 1.1 1.4
2.05 1.1 1.5
2.05 1.1 1.6
2.05 1.1 1.7
2.05 1.1 1.8
2.05 1.1 1.9
2.05 1.1 2
2.05 1.1 2.0999999
2.05 1.1 2.2
2.05 1.1 2.3
2.05 1.1 2.4000001
2.05 1.1 2.5
2.05 1.1 2.5999999
2.05 1.1 2.7
2.05 1.1 2.8
2.05 1.1 2.9000001
2.05 1.1 3
2.05 1.1 3.0999999
2.05 1.1 3.2
2.05 1.1 3.3
2.05 1.1 3.4000001
2.05 1.1 3.5
2.05 1.1 3.5999999
2.05 1.1 3.7
2.05 1.1 3.8
2.05 1.1 3.9000001
2.05 1.1 4
2.05 1.1 4.0999999
2.05 1.1 4.1999998
2.05 1.1 4.3000002
2.05 1.1 4.4000001
2.05 1.1 4.5
2.05 1.1 4.5999999
2.05 1.1 4.6999998
2.05 1.1 4.8000002
2.05 1.1 4.9000001
2.05 1.1 5
2.05 1.1 5.0999999
2.05 1.1 5.1999998
2.05 1.1 5.3000002
2.05 1.1 5.4000001
2.05 1.1 5.5
2.1500001 1.1 -0.5
2.1500001 1.1 -0.40000001
2.1500001 1.1 -0.30000001
2.1500001 1.1 -0.2
2.1500001 1.1 -0.1
2.1500001 1.1 -2.7755576e-17
2.1500001 1.1 0.1
2.1500001 1.1 0.2
2.1500001 1.1 0.30000001
2.1500001 1.1 0.40000001
2.1500001 1.1 0.5
2.1500001 1.1 0.60000002
2.1500001 1.1 0.69999999
2.1500001 1.1 0.80000001
2.1500001 1.1 0.89999998
2.1500001 1.1 1
2.1500001 1.1 1.1
2.1500001 1.1 1.2
2.1500001 1.1 1.3
2.1500001 1.1 1.4
2.1500001 1.1 1.5
2.1500001 1.1 1.6
2.1500001 1.1 1.7
2.1500001 1.1 1.8
2.1500001 1.1 1.9
2.1500001 1.1 2
2.1500001 1.1 2.0999999
2.1500001 1.1 2.2
2.1500001 1.1 2.3
2.1500001 1.1 2.4000001
2.1500001 1.1 2.5
2.1500001 1.1 2.5999999
2.1500001 1.1 2.7
2.1500001 1.1 2.8
2.1500001 1.1 2.9000001
2.1500001 1.1 3
2.1500001 1.1 3.0999999
2.1500001 1.1 3.2
2.1500001 1.1 3.3
2.1500001 1.1 3.4000001
2.1500001 1.1 3.5
2.1500001 1.1 3.5999999
2.1500001 1.1 3.7
2.1500001 1.1 3.8
2.1500001 1.1 3.9000001
2.1500001 1.1 4
2.1500001 1.1 4.0999999
2.1500001 1.1 4.1999998
2.1500001 1.1 4.3000002
2.1500001 1.1 4.4000001
2.1500001 1.1 4.5
2.1500001 1.1 4.5999999
2.1500001 1.1 4.6999998
2.1500001 1.1 4.8000002
2.1500001 1.1 4.9000001
2.1500001 1.1 5
2.1500001 1.1 5.0999999
2.1500001 1.1 5.1999998
2.1500001 1.1 5.3000002
2.1500001 1.1 5.4000001
2.1500001 1.1 5.5
1.85 1 -0.5
1.85 1 -0.40000001
1.85 1 -0.30000001
1.85 1 -0.2
1.85 1 -0.1
1.85 1 -2.7755576e-17
1.85 1 0.1
1.85 1 0.2
1.85 1 0.30000001
1.85 1 0.40000001
1.85 1 0.5
1.85 1 0.60000002
1.85 1 0.69999999
1.85 1 0.80000001
1.85 1 0.89999998
1.85 1 1
1.85 1 1.1
1.85 1 1.2
1.85 1 1.3
1.85 1 1.4
1.85 1 1.5
1.85 1 1.6
1.85 1 1.7
1.85 1 1.8
1.85 1 1.9
1.85 1 2
1.85 1 2.0999999
1.85 1 2.2
1.85 1 2.3
1.85 1 2.4000001
1.85 1 2.5
1.85 1 2.5999999
1.85 1 2.7
1.85 1 2.8
1.85 1 2.9000001
1.85 1 3
1.85 1 3.0999999
1.85 1 3.2
1.85 1 3.3
1.85 1 3.4000001
1.85 1 3.5
1.85 1 3.5999999
1.85 1 3.7
1.85 1 3.8
1.85 1 3.9000001
1.85 1 4
1.85 1 4.0999999
1.85 1 4.1999998
1.85 1 4.3000002
1.85 1 4.4000001
1.85 1 4.5
1.85 1 4.5999999
1.85 1 4.6999998
1.85 1 4.8000002
1.85 1 4.9000001
1.85 1 5
1.85 1 5.0999999
1.85 1 5.1999998
1.85 1 5.3000002
1.85 1 5.4000001
1.85 1 5.5
1.95 1 -0.5
1.95 1 -0.40000001
1.95 1 -0.30000001
1.95 1 -0.2
1.95 1 -0.1
1.95 1 -2.7755576e-17
1.95 1 0.1
1.95 1 0.2
1.95 1 0.30000001
1.95 1 0.40000001
1.95 1 0.5
1.95 1 0.60000002
1.95 1 0.69999999
1.95 1 0.80000001
1.95 1 0.89999998
1.95 1 1
1.95 1 1.1
1.95 1 1.2
1.95 1 1.3
1.95 1 1.4
1.95 1 1.5
1.95 1 1.6
1.95 1 1.7
1.95 1 1.8
1.95 1 1.9
1.95 1 2
1.95 1 2.0999999
1.95 1 2.2
1.95 1 2.3
1.95 1 2.4000001
1.95 1 2.5
1.95 1 2.5999999
1.95 1 2.7
1.95 1 2.8
1.95 1 2.9000001
1.95 1 3
1.95 1 3.0999999
1.95 1 3.2
1.95 1 3.3
1.95 1 3.4000001
1.95 1 3.5
1.95 1 3.5999999
1.95 1 3.7
1.95 1 3.8
1.95 1 3.9000001
1.95 1 4
1.95 1 4.0999999
1.95 1 4.1999998
1.95 1 4.3000002
1.95 1 4.4000001
1.95 1 4.5
1.95 1 4.5999999
1.95 1 4.6999998
1.95 1 4.8000002
1.95 1 4.9000001
1.95 1 5
1.95 1 5.0999999
1.95 1 5.1999998
1.95 1 5.3000002
1.95 1 5.4000001
1.95 1 5.5
2.05 1 -0.5
2.05 1 -0.40000001
2.05 1 -0.30000001
2.05 1 -0.2
2.05 1 -0.1
2.05 1 -2.7755576e-17
2.05 1 0.1
2.05 1 0.2
2.05 1 0.30000001
2.05 1 0.40000001
2.05 1 0.5
2.05 1 0.60000002
2.05 1 0.69999999
2.05 1 0.80000001
2.05 1 0.89999998
2.05 1 1
2.05 1 1.1
2.05 1 1.2
2.05 1 1.3
2.05 1 1.4
2.05 1 1.5
2.05 1 1.6
2.05 1 1.7
2.05 1 1.8
2.05 1 1.9
2.05 1 2
2.05 1 2.0999999
2.05 1 2.2
2.05 1 2.3
2.05 1 2.4000001
2.05 1 2.5
2.05 1 2.5999999
2.05 1 2.7
2.05 1 2.8
2.05 1 2.9000001
2.05 1 3
2.05 1 3.0999999
2.05 1 3.2
2.05 1 3.3
2.05 1 3.4000001
2.05 1 3.5
2.05 1 3.5999999
2.05 1 3.7
2.05 1 3.8
2.05 1 3.9000001
2.05 1 4
2.05 1 4.0999999
2.05 1 4.1999998
2.05 1 4.3000002
2.05 1 4.4000001
2.05 1 4.5
2.05 1 4.5999999
2.05 1 4.6999998
2.05 1 4.8000002
2.05 1 4.9000001
2.05 1 5
2.05 1 5.0999999
2.05 1 5.1999998
2.05 1 5.3000002
2.05 1 5.4000001
2.05 1 5.5
2.1500001 1 -0.5
2.1500001 1 -0.40000001
2.1500001 1 -0.30000001
2.1500001 1 -0.2
2.1500001 1 -0.1
2.1500001 1 -2.7755576e-17
2.1500001 1 0.1
2.1500001 1 0.2
2.1500001 1 0.30000001
2.1500001 1 0.40000001
2.1500001 1 0.5
2.1500001 1 0.60000002
2.1500001 1 0.69999999
2.1500001 1 0.80000001
2.1500001 1 0.89999998
2.1500001 1 1
2.1500001 1 1.1
2.1500001 1 1.2
2.1500001 1 1.3
2.1500001 1 1.4
2.1500001 1 1.5
2.1500001 1 1.6
2.1500001 1 1.7
2.1500001 1 1.8
2.1500001 1 1.9
2.1500001 1 2
2.1500001 1 2.0999999
2.1500001 1 2.2
2.1500001 1 2.3
2.1500001 1 2.4000001
2.1500001 1 2.5
2.1500001 1 2.5999999
2.1500001 1 2.7
2.1500001 1 2.8
2.1500001 1 2.9000001
2.1500001 1 3
2.1500001 1 3.0999999
2.1500001 1 3.2
2.1500001 1 3.3
2.1500001 1 3.4000001
2.1500001 1 3.5
2.1500001 1 3.5999999
2.1500001 1 3.7
2.1500001 1 3.8
2.1500001 1 3.9000001
2.1500001 1 4
2.1500001 1 4.0999999
2.1500001 1 4.1999998
2.1500001 1 4.3000002
2.1500001 1 4.4000001
2.1500001 1 4.5
2.1500001 1 4.5999999
2.1500001 1 4.6999998
2.1500001 1 4.8000002
2.1500001 1 4.9000001
2.1500001 1 5
2.1500001 1 5.0999999
2.1500001 1 5.1999998
2.1500001 1 5.3000002
2.1500001 1 5.4000001
2.1500001 1 5.5
1.85 -0.5 -0.5
1.85 -0.5 -0.40000001
1.85 -0.5 -0.30000001
1.85 -0.5 -0.2
1.85 -0.5 -0.1
1.85 -0.5 -2.7755576e-17
1.85 -0.5 0.1
1.85 -0.5 0.2
1.85 -0.5 0.30000001
1.85 -0.5 0.40000001
1.85 -0.5 0.5
1.85 -0.5 0.60000002
1.85 -0.5 0.69999999
1.85 -0.5 0.80000001
1.85 -0.5 0.89999998
1.85 -0.5 1
1.85 -0.5 1.1
1.85 -0.5 1.2
1.85 -0.5 1.3
1.85 -0.5 1.4
1.85 -0.5 1.5
1.85 -0.5 1.6
1.85 -0.5 1.7
1.85 -0.5 1.8
1.85 -0.5 1.9
1.85 -0.5 2
1.85 -0.5 2.0999999
1.85 -0.5 2.2
1.85 -0.5 2.3
1.85 -0.5 2.4000001
1.85 -0.5 2.5
1.85 -0.5 2.5999999
1.85 -0.5 2.7
1.85 -0.5 2.8
1.85 -0.5 2.9000001
1.85 -0.5 3
1.85 -0.5 3.0999999
1.85 -0.5 3.2
1.85 -0.5 3.3
1.85 -0.5 3.4000001
1.85 -0.5 3.5
1.85 -0.5 3.5999999
1.85 -0.5 3.7
1.85 -0.5 3.8
1.85 -0.5 3.9000001
1.85 -0.5 4
1.85 -0.5 4.0999999
1.85 -0.5 4.1999998
1.85 -0.5 4.3000002
1.85 -0.5 4.4000001
1.85 -0.5 4.5
1.85 -0.5 4.5999999
1.85 -0.5 4.6999998
1.85 -0.5 4.8000002
1.85 -0.5 4.9000001
1.85 -0.5 5
1.85 -0.5 5.0999999
1.85 -0.5 5.1999998
1.85 -0.5 5.3000002
1.85 -0.5 5.4000001
1.85 -0.5 5.5
1.95 -0.5 -0.5
1.95 -0.5 -0.40000001
1.95 -0.5 -0.30000001
1.95 -0.5 -0.2
1.95 -0.5 -0.1
1.95 -0.5 -2.7755576e-17
1.95 -0.5 0.1
1.95 -0.5 0.2
1.95 -0.5 0.30000001
1.95 -0.5 0.40000001
1.95 -0.5 0.5
1.95 -0.5 0.60000002
1.95 -0.5 0.69999999
1.95 -0.5 0.80000001
1.95 -0.5 0.89999998
1.95 -0.5 1
1.95 -0.5 1.1
1.95 -0.5 1.2
1.95 -0.5 1.3
1.95 -0.5 1.4
1.95 -0.5 1.5
1.95 -0.5 1.6
1.95 -0.5 1.7
1.95 -0.5 1.8
1.95 -0.5 1.9
1.95 -0.5 2
1.95 -0.5 2.0999999
1.95 -0.5 2.2
1.95 -0.5 2.3
1.95 -0.5 2.4000001
1.95 -0.5 2.5
1.95 -0.5 2.5999999
1.95 -0.5 2.7
1.95 -0.5 2.8
1.95 -0.5 2.9000001
1.95 -0.5 3
1.95 -0.5 3.0999999
1.95 -0.5 3.2
1.95 -0.5 3.3
1.95 -0.5 3.4000001
1.95 -0.5 3.5
1.95 -0.5 3.5999999
1.95 -0.5 3.7
1.95 -0.5 3.8
1.95 -0.5 3.9000001
1.95 -0.5 4
1.95 -0.5 4.0999999
1.95 -0.5 4.1999998
1.95 -0.5 4.3000002
1.95 -0.5 4.4000001
1.95 -0.5 4.5
1.95 -0.5 4.5999999
1.95 -0.5 4.6999998
1.95 -0.5 4.8000002
1.95 -0.5 4.9000001
1.95 -0.5 5
1.95 -0.5 5.0999999
1.95 -0.5 5.1999998
1.95 -0.5 5.3000002
1.95 -0.5 5.4000001
1.95 -0.5 5.5
2.05 -0.5 -0.5
2.05 -0.5 -0.40000001
2.05 -0.5 -0.30000001
2.05 -0.5 -0.2
2.05 -0.5 -0.1
2.05 -0.5 -2.7755576e-17
2.05 -0.5 0.1
2.05 -0.5 0.2
2.05 -0.5 0.30000001
2.05 -0.5 0.40000001
2.05 -0.5 0.5
2.05 -0.5 0.60000002
2.05 -0.5 0.69999999
2.05 -0.5 0.80000001
2.05 -0.5 0.89999998
2.05 -0.5 1
2.05 -0.5 1.1
2.05 -0.5 1.2
2.05 -0.5 1.3
2.05 -0.5 1.4
2.05 -0.5 1.5
2.05 -0.5 1.6
2.05 -0.5 1.7
2.05 -0.5 1.8
2.05 -0.5 1.9
2.05 -0.5 2
2.05 -0.5 2.0999999
2.05 -0.5 2.2
2.05 -0.5 2.3
2.05 -0.5 2.4000001
2.05 -0.5 2.5
2.05 -0.5 2.5999999
2.05 -0.5 2.7
2.05 -0.5 2.8
2.05 -0.5 2.9000001
2.05 -0.5 3
2.05 -0.5 3.0999999
2.05 -0.5 3.2
2.05 -0.5 3.3
2.05 -0.5 3.4000001
2.05 -0.5 3.5
2.05 -0.5 3.5999999
2.05 -0.5 3.7
2.05 -0.5 3.8
2.05 -0.5 3.9000001
2.05 -0.5 4
2.05 -0.5 4.0999999
2.05 -0.5 4.1999998
2.05 -0.5 4.3000002
2.05 -0.5 4.4000001
2.05 -0.5 4.5
2.05 -0.5 4.5999999
2.05 -0.5 4.6999998
2.05 -0.5 4.8000002
2.05 -0.5 4.9000001
2.05 -0.5 5
2.05 -0.5 5.0999999
2.05 -0.5 5.1999998
2.05 -0.5 5.3000002
2.05 -0.5 5.4000001
2.05 -0.5 5.5
2.1500001 -0.5 -0.5
2.1500001 -0.5 -0.40000001
2.1500001 -0.5 -0.30000001
2.1500001 -0.5 -0.2
2.1500001 -0.5 -0.1
2.1500001 -0.5 -2.7755576e-17
2.1500001 -0.5 0.1
2.1500001 -0.5 0.2
2.1500001 -0.5 0.30000001
2.1500001 -0.5 0.40000001
2.1500001 -0.5 0.5
2.1500001 -0.5 0.60000002
2.1500001 -0.5 0.69999999
2.1500001 -0.5 0.80000001
2.1500001 -0.5 0.89999998
2.1500001 -0.5 1
2.1500001 -0.5 1.1
2.1500001 -0.5 1.2
2.1500001 -0.5 1.3
2.1500001 -0.5 1.4
2.1500001 -0.5 1.5
2.1500001 -0.5 1.6
2.1500001 -0.5 1.7
2.1500001 -0.5 1.8
2.1500001 -0.5 1.9
2.1500001 -0.5 2
2.1500001 -0.5 2.0999999
2.1500001 -0.5 2.2
2.1500001 -0.5 2.3
2.1500001 -0.5 2.4000001
2.1500001 -0.5 2.5
2.1500001 -0.5 2.5999999
2.1500001 -0.5 2.7
2.1500001 -0.5 2.8
2.1500001 -0.5 2.9000001
2.1500001 -0.5 3
2.1500001 -0.5 3.0999999
2.1500001 -0.5 3.2
2.1500001 -0.5 3.3
2.1500001 -0.5 3.4000001
2.1500001 -0.5 3.5
2.1500001 -0.5 3.5999999
2.1500001 -0.5 3.7
2.1500001 -0.5 3.8
2.1500001 -0.5 3.9000001
2.1500001 -0.5 4
2.1500001 -0.5 4.0999999
2.1500001 -0.5 4.1999998
2.1500001 -0.5 4.3000002
2.1500001 -0.5 4.4000001
2.1500001 -0.5 4.5
2.1500001 -0.5 4.5999999
2.1500001 -0.5 4.6999998
2.1500001 -0.5 4.8000002
2.1500001 -0.5 4.9000001
2.1500001 -0.5 5
2.1500001 -0.5 5.0999999
2.1500001 -0.5 5.1999998
2.1500001 -0.5 5.3000002
2.1500001 -0.5 5.4000001
2.1500001 -0.5 5.5
1.85 -0.60000002 -0.5
1.85 -0.60000002 -0.40000001
1.85 -0.60000002 -0.30000001
1.85 -0.60000002 -0.2
1.85 -0.60000002 -0.1
1.85 -0.60000002 -2.7755576e-17
1.85 -0.60000002 0.1
1.85 -0.60000002 0.2
1.85 -0.60000002 0.30000001
1.85 -0.60000002 0.40000001
1.85 -0.60000002 0.5
1.85 -0.60000002 0.60000002
1.85 -0.60000002 0.69999999
1.85 -0.60000002 0.80000001
1.85 -0.60000002 0.89999998
1.85 -0.60000002 1
1.85 -0.60000002 1.1
1.85 -0.60000002 1.2
1.85 -0.60000002 1.3
1.85 -0.60000002 1.4
1.85 -0.60000002 1.5
1.85 -0.60000002 1.6
1.85 -0.60000002 1.7
1.85 -0.60000002 1.8
1.85 -0.60000002 1.9
1.85 -0.60000002 2
1.85 -0.60000002 2.0999999
1.85 -0.60000002 2.2
1.85 -0.60000002 2.3
1.85 -0.60000002 2.4000001
1.85 -0.60000002 2.5
1.85 -0.60000002 2.5999999
1.85 -0.60000002 2.7
1.85 -0.60000002 2.8
1.85 -0.60000002 2.9000001
1.85 -0.60000002 3
1.85 -0.60000002 3.0999999
1.85 -0.60000002 3.2
1.85 -0.60000002 3.3
1.85 -0.60000002 3.4000001
1.85 -0.60000002 3.5
1.85 -0.60000002 3.5999999
1.85 -0.60000002 3.7
1.85 -0.60000002 3.8
1.85 -0.60000002 3.9000001
1.85 -0.60000002 4
1.85 -0.60000002 4.0999999
1.85 -0.60000002 4.1999998
1.85 -0.60000002 4.3000002
1.85 -0.60000002 4.4000001
1.85 -0.60000002 4.5
1.85 -0.60000002 4.5999999
1.85 -0.60000002 4.6999998
1.85 -0.60000002 4.8000002
1.85 -0.60000002 4.9000001
1.85 -0.60000002 5
1.85 -0.60000002 5.0999999
1.85 -0.60000002 5.1999998
1.85 -0.60000002 5.3000002
1.85 -0.60000002 5.4000001
1.85 -0.60000002 5.5
1.95 -0.60000002 -0.5
1.95 -0.60000002 -0.40000001
1.95 -0.60000002 -0.30000001
1.95 -0.60000002 -0.2
1.95 -0.60000002 -0.1
1.95 -0.60000002 -2.7755576e-17
1.95 -0.60000002 0.1
1.95 -0.60000002 0.2
1.95 -0.60000002 0.30000001
1.95 -0.60000002 0.40000001
1.95 -0.60000002 0.5
1.95 -0.60000002 0.60000002
1.95 -0.60000002 0.69999999
1.95 -0.60000002 0.80000001
1.95 -0.60000002 0.89999998
1.95 -0.60000002 1
1.95 -0.60000002 1.1
1.95 -0.60000002 1.2
1.95 -0.60000002 1.3
1.95 -0.60000002 1.4
1.95 -0.60000002 1.5
1.95 -0.60000002 1.6
1.95 -0.60000002 1.7
1.95 -0.60000002 1.8
1.95 -0.60000002 1.9
1.95 -0.60000002 2
1.95 -0.60000002 2.0999999
1.95 -0.60000002 2.2
1.95 -0.60000002 2.3
1.95 -0.60000002 2.4000001
1.95 -0.60000002 2.5
1.95 -0.60000002 2.5999999
1.95 -0.60000002 2.7
1.95 -0.60000002 2.8
1.95 -0.60000002 2.9000001
1.95 -0.60000002 3
1.95 -0.60000002 3.0999999
1.95 -0.60000002 3.2
1.95 -0.60000002 3.3
1.95 -0.60000002 3.4000001
1.95 -0.60000002 3.5
1.95 -0.60000002 3.5999999
1.95 -0.60000002 3.7
1.95 -0.60000002 3.8
1.95 -0.60000002 3.9000001
1.95 -0.60000002 4
1.95 -0.60000002 4.0999999
1.95 -0.60000002 4.1999998
1.95 -0.60000002 4.3000002
1.95 -0.60000002 4.4000001
1.95 -0.60000002 4.5
1.95 -0.60000002 4.5999999
1.95 -0.60000002 4.6999998
1.95 -0.60000002 4.8000002
1.95 -0.60000002 4.9000001
1.95 -0.60000002 5
1.95 -0.60000002 5.0999999
1.95 -0.60000002 5.1999998
1.95 -0.60000002 5.3000002
1.95 -0.60000002 5.4000001
1.95 -0.60000002 5.5
2.05 -0.60000002 -0.5
2.05 -0.60000002 -0.40000001
2.05 -0.60000002 -0.30000001
2.05 -0.60000002 -0.2
2.05 -0.60000002 -0.1
2.05 -0.60000002 -2.7755576e-17
2.05 -0.60000002 0.1
2.05 -0.60000002 0.2
2.05 -0.60000002 0.30000001
2.05 -0.60000002 0.40000001
2.05 -0.60000002 0.5
2.05 -0.60000002 0.60000002
2.05 -0.60000002 0.69999999
2.05 -0.60000002 0.80000001
2.05 -0.60000002 0.89999998
2.05 -0.60000002 1
2.05 -0.60000002 1.1
2.05 -0.60000002 1.2
2.05 -0.60000002 1.3
2.05 -0.60000002 1.4
2.05 -0.60000002 1.5
2.05 -0.60000002 1.6
2.05 -0.60000002 1.7
2.05 -0.60000002 1.8
2.05 -0.60000002 1.9
2.05 -0.60000002 2
2.05 -0.60000002 2.0999999
2.05 -0.60000002 2.2
2.05 -0.60000002 2.3
2.05 -0.60000002 2.4000001
2.05 -0.60000002 2.5
2.05 -0.60000002 2.5999999
2.05 -0.60000002 2.7
2.05 -0.60000002 2.8
2.05 -0.60000002 2.9000001
2.05 -0.60000002 3
2.05 -0.60000002 3.0999999
2.05 -0.60000002 3.2
2.05 -0.60000002 3.3
2.05 -0.60000002 3.4000001
2.05 -0.60000002 3.5
2.05 -0.60000002 3.5999999
2.05 -0.60000002 3.7
2.05 -0.60000002 3.8
2.05 -0.60000002 3.9000001
2.05 -0.60000002 4
2.05 -0.60000002 4.0999999
2.05 -0.60000002 4.1999998
2.05 -0.60000002 4.3000002
2.05 -0.60000002 4.4000001
2.05 -0.60000002 4.5
2.05 -0.60000002 4.5999999
2.05 -0.60000002 4.6999998
2.05 -0.60000002 4.8000002
2.05 -0.60000002 4.9000001
2.05 -0.60000002 5
2.05 -0.60000002 5.0999999
2.05 -0.60000002 5.1999998
2.05 -0.60000002 5.3000002
2.05 -0.60000002 5.4000001
2.05 -0.60000002 5.5
2.1500001 -0.60000002 -0.5
2.1500001 -0.60000002 -0.40000001
2.1500001 -0.60000002 -0.30000001
2.1500001 -0.60000002 -0.2
2.1500001 -0.60000002 -0.1
2.1500001 -0.60000002 -2.7755576e-17
2.1500001 -0.60000002 0.1
2.1500001 -0.60000002 0.2
2.1500001 -0.60000002 0.30000001
2.1500001 -0.60000002 0.40000001
2.1500001 -0.60000002 0.5
2.1500001 -0.60000002 0.60000002
2.1500001 -0.60000002 0.69999999
2.1500001 -0.60000002 0.80000001
2.1500001 -0.60000002 0.89999998
2.1500001 -0.60000002 1
2.1500001 -0.60000002 1.1
2.1500001 -0.60000002 1.2
2.1500001 -0.60000002 1.3
2.1500001 -0.60000002 1.4
2.1500001 -0.60000002 1.5
2.1500001 -0.60000002 1.6
2.1500001 -0.60000002 1.7
2.1500001 -0.60000002 1.8
2.1500001 -0.60000002 1.9
2.1500001 -0.60000002 2
2.1500001 -0.60000002 2.0999999
2.1500001 -0.60000002 2.2
2.1500001 -0.60000002 2.3
2.1500001 -0.60000002 2.4000001
2.1500001 -0.60000002 2.5
2.1500001 -0.60000002 2.5999999
2.1500001 -0.60000002 2.7
2.1500001 -0.60000002 2.8
2.1500001 -0.60000002 2.9000001
2.1500001 -0.60000002 3
2.1500001 -0.60000002 3.0999999
2.1500001 -0.60000002 3.2
2.1500001 -0.60000002 3.3
2.1500001 -0.60000002 3.4000001
2.1500001 -0.60000002 3.5
2.1500001 -0.60000002 3.5999999
2.1500001 -0.60000002 3.7
2.1500001 -0.60000002 3.8
2.1500001 -0.60000002 3.9000001
2.1500001 -0.60000002 4
2.1500001 -0.60000002 4.0999999
2.1500001 -0.60000002 4.1999998
2.1500001 -0.60000002 4.3000002
2.1500001 -0.60000002 4.4000001
2.1500001 -0.60000002 4.5
2.1500001 -0.60000002 4.5999999
2.1500001 -0.60000002 4.6999998
2.1500001 -0.60000002 4.8000002
2.1500001 -0.60000002 4.9000001
2.1500001 -0.60000002 5
2.1500001 -0.60000002 5.0999999
2.1500001 -0.60000002 5.1999998
2.1500001 -0.60000002 5.3000002
2.1500001 -0.60000002 5.4000001
2.1500001 -0.60000002 5.5
1.85 -0.69999999 -0.5
1.85 -0.69999999 -0.40000001
1.85 -0.69999999 -0.30000001
1.85 -0.69999999 -0.2
1.85 -0.69999999 -0.1
1.85 -0.69999999 -2.7755576e-17
1.85 -0.69999999 0.1
1.85 -0.69999999 0.2
1.85 -0.69999999 0.30000001
1.85 -0.69999999 0.40000001
1.85 -0.69999999 0.5
1.85 -0.69999999 0.60000002
1.85 -0.69999999 0.69999999
1.85 -0.69999999 0.80000001
1.85 -0.69999999 0.89999998
