# .PCD v0.7 - Point Cloud Data file format
VERSION 0.7
FIELDS x y z
SIZE 4 4 4
TYPE F F F
COUNT 1 1 1
WIDTH 1889
HEIGHT 1
VIEWPOINT 0 0 0 1 0 0 0
POINTS 1889
DATA ascii
6.1500001 8 2.2
6.1500001 8 2.3
6.1500001 8 2.4000001
6.1500001 8 2.5
6.1500001 8 2.5999999
6.1500001 8 2.7
6.1500001 8 2.8
6.1500001 8 2.9000001
6.1500001 8 3
6.1500001 8 3.0999999
6.1500001 8 3.2
6.1500001 8 3.3
6.1500001 8 3.4000001
5.8499999 7.9000001 -0.5
5.8499999 7.9000001 -0.40000001
5.8499999 7.9000001 -0.30000001
5.8499999 7.9000001 -0.2
5.8499999 7.9000001 -0.1
5.8499999 7.9000001 -2.7755576e-17
5.8499999 7.9000001 0.1
5.8499999 7.9000001 0.2
5.8499999 7.9000001 0.30000001
5.8499999 7.9000001 0.40000001
5.8499999 7.9000001 0.5
5.8499999 7.9000001 0.60000002
5.8499999 7.9000001 0.69999999
5.8499999 7.9000001 0.80000001
5.8499999 7.9000001 0.89999998
5.8499999 7.9000001 1
5.8499999 7.9000001 1.1
5.8499999 7.9000001 1.2
5.8499999 7.9000001 1.3
5.8499999 7.9000001 1.4
5.8499999 7.9000001 1.5
5.8499999 7.9000001 1.6
5.8499999 7.9000001 1.7
5.8499999 7.9000001 1.8
5.8499999 7.9000001 1.9
5.8499999 7.9000001 2
5.8499999 7.9000001 2.0999999
5.8499999 7.9000001 2.2
5.8499999 7.9000001 2.3
5.8499999 7.9000001 2.4000001
5.8499999 7.9000001 2.5
5.8499999 7.9000001 2.5999999
5.8499999 7.9000001 2.7
5.8499999 7.9000001 2.8
5.8499999 7.9000001 2.9000001
5.8499999 7.9000001 3
5.8499999 7.9000001 3.0999999
5.8499999 7.9000001 3.2
5.8499999 7.9000001 3.3
5.8499999 7.9000001 3.4000001
5.9499998 7.9000001 -0.5
5.9499998 7.9000001 -0.40000001
5.9499998 7.9000001 -0.30000001
5.9499998 7.9000001 -0.2
5.9499998 7.9000001 -0.1
5.9499998 7.9000001 -2.7755576e-17
5.9499998 7.9000001 0.1
5.9499998 7.9000001 0.2
5.9499998 7.9000001 0.30000001
5.9499998 7.9000001 0.40000001
5.9499998 7.9000001 0.5
5.9499998 7.9000001 0.60000002
5.9499998 7.9000001 0.69999999
5.9499998 7.9000001 0.80000001
5.9499998 7.9000001 0.89999998
5.9499998 7.9000001 1
5.9499998 7.9000001 1.1
5.9499998 7.9000001 1.2
5.9499998 7.9000001 1.3
5.9499998 7.9000001 1.4
5.9499998 7.9000001 1.5
5.9499998 7.9000001 1.6
5.9499998 7.9000001 1.7
5.9499998 7.9000001 1.8
5.9499998 7.9000001 1.9
5.9499998 7.9000001 2
5.9499998 7.9000001 2.0999999
5.9499998 7.9000001 2.2
5.9499998 7.9000001 2.3
5.9499998 7.9000001 2.4000001
5.9499998 7.9000001 2.5
5.9499998 7.9000001 2.5999999
5.9499998 7.9000001 2.7
5.9499998 7.9000001 2.8
5.9499998 7.9000001 2.9000001
5.9499998 7.9000001 3
5.9499998 7.9000001 3.0999999
5.9499998 7.9000001 3.2
5.9499998 7.9000001 3.3
5.9499998 7.9000001 3.4000001
6.0500002 7.9000001 -0.5
6.0500002 7.9000001 -0.40000001
6.0500002 7.9000001 -0.30000001
6.0500002 7.9000001 -0.2
6.0500002 7.9000001 -0.1
6.0500002 7.9000001 -2.7755576e-17
6.0500002 7.9000001 0.1
6.0500002 7.9000001 0.2
6.0500002 7.9000001 0.30000001
6.0500002 7.9000001 0.40000001
6.0500002 7.9000001 0.5
6.0500002 7.9000001 0.60000002
6.0500002 7.9000001 0.69999999
6.0500002 7.9000001 0.80000001
6.0500002 7.9000001 0.89999998
6.0500002 7.9000001 1
6.0500002 7.9000001 1.1
6.0500002 7.9000001 1.2
6.0500002 7.9000001 1.3
6.0500002 7.9000001 1.4
6.0500002 7.9000001 1.5
6.0500002 7.9000001 1.6
6.0500002 7.9000001 1.7
6.0500002 7.9000001 1.8
6.0500002 7.9000001 1.9
6.0500002 7.9000001 2
6.0500002 7.9000001 2.0999999
6.0500002 7.9000001 2.2
6.0500002 7.9000001 2.3
6.0500002 7.9000001 2.4000001
6.0500002 7.9000001 2.5
6.0500002 7.9000001 2.5999999
6.0500002 7.9000001 2.7
6.0500002 7.9000001 2.8
6.0500002 7.9000001 2.9000001
6.0500002 7.9000001 3
6.0500002 7.9000001 3.0999999
6.0500002 7.9000001 3.2
6.0500002 7.9000001 3.3
6.0500002 7.9000001 3.4000001
6.1500001 7.9000001 -0.5
6.1500001 7.9000001 -0.40000001
6.1500001 7.9000001 -0.30000001
6.1500001 7.9000001 -0.2
6.1500001 7.9000001 -0.1
6.1500001 7.9000001 -2.7755576e-17
6.1500001 7.9000001 0.1
6.1500001 7.9000001 0.2
6.1500001 7.9000001 0.30000001
6.1500001 7.9000001 0.40000001
6.1500001 7.9000001 0.5
6.1500001 7.9000001 0.60000002
6.1500001 7.9000001 0.69999999
6.1500001 7.9000001 0.80000001
6.1500001 7.9000001 0.89999998
6.1500001 7.9000001 1
6.1500001 7.9000001 1.1
6.1500001 7.9000001 1.2
6.1500001 7.9000001 1.3
6.1500001 7.9000001 1.4
6.1500001 7.9000001 1.5
6.1500001 7.9000001 1.6
6.1500001 7.9000001 1.7
6.1500001 7.9000001 1.8
6.1500001 7.9000001 1.9
6.1500001 7.9000001 2
6.1500001 7.9000001 2.0999999
6.1500001 7.9000001 2.2
6.1500001 7.9000001 2.3
6.1500001 7.9000001 2.4000001
6.1500001 7.9000001 2.5
6.1500001 7.9000001 2.5999999
6.1500001 7.9000001 2.7
6.1500001 7.9000001 2.8
6.1500001 7.9000001 2.9000001
6.1500001 7.9000001 3
6.1500001 7.9000001 3.0999999
6.1500001 7.9000001 3.2
6.1500001 7.9000001 3.3
6.1500001 7.9000001 3.4000001
5.8499999 7.8000002 -0.5
5.8499999 7.8000002 -0.40000001
5.8499999 7.8000002 -0.30000001
5.8499999 7.8000002 -0.2
5.8499999 7.8000002 -0.1
5.8499999 7.8000002 -2.7755576e-17
5.8499999 7.8000002 0.1
5.8499999 7.8000002 0.2
5.8499999 7.8000002 0.30000001
5.8499999 7.8000002 0.40000001
5.8499999 7.8000002 0.5
5.8499999 7.8000002 0.60000002
5.8499999 7.8000002 0.69999999
5.8499999 7.8000002 0.80000001
5.8499999 7.8000002 0.89999998
5.8499999 7.8000002 1
5.8499999 7.8000002 1.1
5.8499999 7.8000002 1.2
5.8499999 7.8000002 1.3
5.8499999 7.8000002 1.4
5.8499999 7.8000002 1.5
5.8499999 7.8000002 1.6
5.8499999 7.8000002 1.7
5.8499999 7.8000002 1.8
5.8499999 7.8000002 1.9
5.8499999 7.8000002 2
5.8499999 7.8000002 2.0999999
5.8499999 7.8000002 2.2
5.8499999 7.8000002 2.3
5.8499999 7.8000002 2.4000001
5.8499999 7.8000002 2.5
5.8499999 7.8000002 2.5999999
5.8499999 7.8000002 2.7
5.8499999 7.8000002 2.8
5.8499999 7.8000002 2.9000001
5.8499999 7.8000002 3
5.8499999 7.8000002 3.0999999
5.8499999 7.8000002 3.2
5.8499999 7.8000002 3.3
5.8499999 7.8000002 3.4000001
5.9499998 7.8000002 -0.5
5.9499998 7.8000002 -0.40000001
5.9499998 7.8000002 -0.30000001
5.9499998 7.8000002 -0.2
5.9499998 7.8000002 -0.1
5.9499998 7.8000002 -2.7755576e-17
5.9499998 7.8000002 0.1
5.9499998 7.8000002 0.2
5.9499998 7.8000002 0.30000001
5.9499998 7.8000002 0.40000001
5.9499998 7.8000002 0.5
5.9499998 7.8000002 0.60000002
5.9499998 7.8000002 0.69999999
5.9499998 7.8000002 0.80000001
5.9499998 7.8000002 0.89999998
5.9499998 7.8000002 1
5.9499998 7.8000002 1.1
5.9499998 7.8000002 1.2
5.9499998 7.8000002 1.3
5.9499998 7.8000002 1.4
5.9499998 7.8000002 1.5
5.9499998 7.8000002 1.6
5.9499998 7.8000002 1.7
5.9499998 7.8000002 1.8
5.9499998 7.8000002 1.9
5.9499998 7.8000002 2
5.9499998 7.8000002 2.0999999
5.9499998 7.8000002 2.2
5.9499998 7.8000002 2.3
5.9499998 7.8000002 2.4000001
5.9499998 7.8000002 2.5
5.9499998 7.8000002 2.5999999
5.9499998 7.8000002 2.7
5.9499998 7.8000002 2.8
5.9499998 7.8000002 2.9000001
5.9499998 7.8000002 3
5.9499998 7.8000002 3.0999999
5.9499998 7.8000002 3.2
5.9499998 7.8000002 3.3
5.9499998 7.8000002 3.4000001
6.0500002 7.8000002 -0.5
6.0500002 7.8000002 -0.40000001
6.0500002 7.8000002 -0.30000001
6.0500002 7.8000002 -0.2
6.0500002 7.8000002 -0.1
6.0500002 7.8000002 -2.7755576e-17
6.0500002 7.8000002 0.1
6.0500002 7.8000002 0.2
6.0500002 7.8000002 0.30000001
6.0500002 7.8000002 0.40000001
6.0500002 7.8000002 0.5
6.0500002 7.8000002 0.60000002
6.0500002 7.8000002 0.69999999
6.0500002 7.8000002 0.80000001
6.0500002 7.8000002 0.89999998
6.0500002 7.8000002 1
6.0500002 7.8000002 1.1
6.0500002 7.8000002 1.2
6.0500002 7.8000002 1.3
6.0500002 7.8000002 1.4
6.0500002 7.8000002 1.5
6.0500002 7.8000002 1.6
6.0500002 7.8000002 1.7
6.0500002 7.8000002 1.8
6.0500002 7.8000002 1.9
6.0500002 7.8000002 2
6.0500002 7.8000002 2.0999999
6.0500002 7.8000002 2.2
6.0500002 7.8000002 2.3
6.0500002 7.8000002 2.4000001
6.0500002 7.8000002 2.5
6.0500002 7.8000002 2.5999999
6.0500002 7.8000002 2.7
6.0500002 7.8000002 2.8
6.0500002 7.8000002 2.9000001
6.0500002 7.8000002 3
6.0500002 7.8000002 3.0999999
6.0500002 7.8000002 3.2
6.0500002 7.8000002 3.3
6.0500002 7.8000002 3.4000001
6.1500001 7.8000002 -0.5
6.1500001 7.8000002 -0.40000001
6.1500001 7.8000002 -0.30000001
6.1500001 7.8000002 -0.2
6.1500001 7.8000002 -0.1
6.1500001 7.8000002 -2.7755576e-17
6.1500001 7.8000002 0.1
6.1500001 7.8000002 0.2
6.1500001 7.8000002 0.30000001
6.1500001 7.8000002 0.40000001
6.1500001 7.8000002 0.5
6.1500001 7.8000002 0.60000002
6.1500001 7.8000002 0.69999999
6.1500001 7.8000002 0.80000001
6.1500001 7.8000002 0.89999998
6.1500001 7.8000002 1
6.1500001 7.8000002 1.1
6.1500001 7.8000002 1.2
6.1500001 7.8000002 1.3
6.1500001 7.8000002 1.4
6.1500001 7.8000002 1.5
6.1500001 7.8000002 1.6
6.1500001 7.8000002 1.7
6.1500001 7.8000002 1.8
6.1500001 7.8000002 1.9
6.1500001 7.8000002 2
6.1500001 7.8000002 2.0999999
6.1500001 7.8000002 2.2
6.1500001 7.8000002 2.3
6.1500001 7.8000002 2.4000001
6.1500001 7.8000002 2.5
6.1500001 7.8000002 2.5999999
6.1500001 7.8000002 2.7
6.1500001 7.8000002 2.8
6.1500001 7.8000002 2.9000001
6.1500001 7.8000002 3
6.1500001 7.8000002 3.0999999
6.1500001 7.8000002 3.2
6.1500001 7.8000002 3.3
6.1500001 7.8000002 3.4000001
5.8499999 7.6999998 -0.5
5.8499999 7.6999998 -0.40000001
5.8499999 7.6999998 -0.30000001
5.8499999 7.6999998 -0.2
5.8499999 7.6999998 -0.1
5.8499999 7.6999998 -2.7755576e-17
5.8499999 7.6999998 0.1
5.8499999 7.6999998 0.2
5.8499999 7.6999998 0.30000001
5.8499999 7.6999998 0.40000001
5.8499999 7.6999998 0.5
5.8499999 7.6999998 0.60000002
5.8499999 7.6999998 0.69999999
5.8499999 7.6999998 0.80000001
5.8499999 7.6999998 0.89999998
5.8499999 7.6999998 1
5.8499999 7.6999998 1.1
5.8499999 7.6999998 1.2
5.8499999 7.6999998 1.3
5.8499999 7.6999998 1.4
5.8499999 7.6999998 1.5
5.8499999 7.6999998 1.6
5.8499999 7.6999998 1.7
5.8499999 7.6999998 1.8
5.8499999 7.6999998 1.9
5.8499999 7.6999998 2
5.8499999 7.6999998 2.0999999
5.8499999 7.6999998 2.2
5.8499999 7.6999998 2.3
5.8499999 7.6999998 2.4000001
5.8499999 7.6999998 2.5
5.8499999 7.6999998 2.5999999
5.8499999 7.6999998 2.7
5.8499999 7.6999998 2.8
5.8499999 7.6999998 2.9000001
5.8499999 7.6999998 3
5.8499999 7.6999998 3.0999999
5.8499999 7.6999998 3.2
5.8499999 7.6999998 3.3
5.8499999 7.6999998 3.4000001
5.9499998 7.6999998 -0.5
5.9499998 7.6999998 -0.40000001
5.9499998 7.6999998 -0.30000001
5.9499998 7.6999998 -0.2
5.9499998 7.6999998 -0.1
5.9499998 7.6999998 -2.7755576e-17
5.9499998 7.6999998 0.1
5.9499998 7.6999998 0.2
5.9499998 7.6999998 0.30000001
5.9499998 7.6999998 0.40000001
5.9499998 7.6999998 0.5
5.9499998 7.6999998 0.60000002
5.9499998 7.6999998 0.69999999
5.9499998 7.6999998 0.80000001
5.9499998 7.6999998 0.89999998
5.9499998 7.6999998 1
5.9499998 7.6999998 1.1
5.9499998 7.6999998 1.2
5.9499998 7.6999998 1.3
5.9499998 7.6999998 1.4
5.9499998 7.6999998 1.5
5.9499998 7.6999998 1.6
5.9499998 7.6999998 1.7
5.9499998 7.6999998 1.8
5.9499998 7.6999998 1.9
5.9499998 7.6999998 2
5.9499998 7.6999998 2.0999999
5.9499998 7.6999998 2.2
5.9499998 7.6999998 2.3
5.9499998 7.6999998 2.4000001
5.9499998 7.6999998 2.5
5.9499998 7.6999998 2.5999999
5.9499998 7.6999998 2.7
5.9499998 7.6999998 2.8
5.9499998 7.6999998 2.9000001
5.9499998 7.6999998 3
5.9499998 7.6999998 3.0999999
5.9499998 7.6999998 3.2
5.9499998 7.6999998 3.3
5.9499998 7.6999998 3.4000001
6.0500002 7.6999998 -0.5
6.0500002 7.6999998 -0.40000001
6.0500002 7.6999998 -0.30000001
6.0500002 7.6999998 -0.2
6.0500002 7.6999998 -0.1
6.0500002 7.6999998 -2.7755576e-17
6.0500002 7.6999998 0.1
6.0500002 7.6999998 0.2
6.0500002 7.6999998 0.30000001
6.0500002 7.6999998 0.40000001
6.0500002 7.6999998 0.5
6.0500002 7.6999998 0.60000002
6.0500002 7.6999998 0.69999999
6.0500002 7.6999998 0.80000001
6.0500002 7.6999998 0.89999998
6.0500002 7.6999998 1
6.0500002 7.6999998 1.1
6.0500002 7.6999998 1.2
6.0500002 7.6999998 1.3
6.0500002 7.6999998 1.4
6.0500002 7.6999998 1.5
6.0500002 7.6999998 1.6
6.0500002 7.6999998 1.7
6.0500002 7.6999998 1.8
6.0500002 7.6999998 1.9
6.0500002 7.6999998 2
6.0500002 7.6999998 2.0999999
6.0500002 7.6999998 2.2
6.0500002 7.6999998 2.3
6.0500002 7.6999998 2.4000001
6.0500002 7.6999998 2.5
6.0500002 7.6999998 2.5999999
6.0500002 7.6999998 2.7
6.0500002 7.6999998 2.8
6.0500002 7.6999998 2.9000001
6.0500002 7.6999998 3
6.0500002 7.6999998 3.0999999
6.0500002 7.6999998 3.2
6.0500002 7.6999998 3.3
6.0500002 7.6999998 3.4000001
6.1500001 7.6999998 -0.5
6.1500001 7.6999998 -0.40000001
6.1500001 7.6999998 -0.30000001
6.1500001 7.6999998 -0.2
6.1500001 7.6999998 -0.1
6.1500001 7.6999998 -2.7755576e-17
6.1500001 7.6999998 0.1
6.1500001 7.6999998 0.2
6.1500001 7.6999998 0.30000001
6.1500001 7.6999998 0.40000001
6.1500001 7.6999998 0.5
6.1500001 7.6999998 0.60000002
6.1500001 7.6999998 0.69999999
6.1500001 7.6999998 0.80000001
6.1500001 7.6999998 0.89999998
6.1500001 7.6999998 1
6.1500001 7.6999998 1.1
6.1500001 7.6999998 1.2
6.1500001 7.6999998 1.3
6.1500001 7.6999998 1.4
6.1500001 7.6999998 1.5
6.1500001 7.6999998 1.6
6.1500001 7.6999998 1.7
6.1500001 7.6999998 1.8
6.1500001 7.6999998 1.9
6.1500001 7.6999998 2
6.1500001 7.6999998 2.0999999
6.1500001 7.6999998 2.2
6.1500001 7.6999998 2.3
6.1500001 7.6999998 2.4000001
6.1500001 7.6999998 2.5
6.1500001 7.6999998 2.5999999
6.1500001 7.6999998 2.7
6.1500001 7.6999998 2.8
6.1500001 7.6999998 2.9000001
6.1500001 7.6999998 3
6.1500001 7.6999998 3.0999999
6.1500001 7.6999998 3.2
6.1500001 7.6999998 3.3
6.1500001 7.6999998 3.4000001
5.8499999 7.5999999 -0.5
5.8499999 7.5999999 -0.40000001
5.8499999 7.5999999 -0.30000001
5.8499999 7.5999999 -0.2
5.8499999 7.5999999 -0.1
5.8499999 7.5999999 -2.7755576e-17
5.8499999 7.5999999 0.1
5.8499999 7.5999999 0.2
5.8499999 7.5999999 0.30000001
5.8499999 7.5999999 0.40000001
5.8499999 7.5999999 0.5
5.8499999 7.5999999 0.60000002
5.8499999 7.5999999 0.69999999
5.8499999 7.5999999 0.80000001
5.8499999 7.5999999 0.89999998
5.8499999 7.5999999 1
5.8499999 7.5999999 1.1
5.8499999 7.5999999 1.2
5.8499999 7.5999999 1.3
5.8499999 7.5999999 1.4
5.8499999 7.5999999 1.5
5.8499999 7.5999999 1.6
5.8499999 7.5999999 1.7
5.8499999 7.5999999 1.8
5.8499999 7.5999999 1.9
5.8499999 7.5999999 2
5.8499999 7.5999999 2.0999999
5.8499999 7.5999999 2.2
5.8499999 7.5999999 2.3
5.8499999 7.5999999 2.4000001
5.8499999 7.5999999 2.5
5.8499999 7.5999999 2.5999999
5.8499999 7.5999999 2.7
5.8499999 7.5999999 2.8
5.8499999 7.5999999 2.9000001
5.8499999 7.5999999 3
5.8499999 7.5999999 3.0999999
5.8499999 7.5999999 3.2
5.8499999 7.5999999 3.3
5.8499999 7.5999999 3.4000001
5.9499998 7.5999999 -0.5
5.9499998 7.5999999 -0.40000001
5.9499998 7.5999999 -0.30000001
5.9499998 7.5999999 -0.2
5.9499998 7.5999999 -0.1
5.9499998 7.5999999 -2.7755576e-17
5.9499998 7.5999999 0.1
5.9499998 7.5999999 0.2
5.9499998 7.5999999 0.30000001
5.9499998 7.5999999 0.40000001
5.9499998 7.5999999 0.5
5.9499998 7.5999999 0.60000002
5.9499998 7.5999999 0.69999999
5.9499998 7.5999999 0.80000001
5.9499998 7.5999999 0.89999998
5.9499998 7.5999999 1
5.9499998 7.5999999 1.1
5.9499998 7.5999999 1.2
5.9499998 7.5999999 1.3
5.9499998 7.5999999 1.4
5.9499998 7.5999999 1.5
5.9499998 7.5999999 1.6
5.9499998 7.5999999 1.7
5.9499998 7.5999999 1.8
5.9499998 7.5999999 1.9
5.9499998 7.5999999 2
5.9499998 7.5999999 2.0999999
5.9499998 7.5999999 2.2
5.9499998 7.5999999 2.3
5.9499998 7.5999999 2.4000001
5.9499998 7.5999999 2.5
5.9499998 7.5999999 2.5999999
5.9499998 7.5999999 2.7
5.9499998 7.5999999 2.8
5.9499998 7.5999999 2.9000001
5.9499998 7.5999999 3
5.9499998 7.5999999 3.0999999
5.9499998 7.5999999 3.2
5.9499998 7.5999999 3.3
5.9499998 7.5999999 3.4000001
6.0500002 7.5999999 -0.5
6.0500002 7.5999999 -0.40000001
6.0500002 7.5999999 -0.30000001
6.0500002 7.5999999 -0.2
6.0500002 7.5999999 -0.1
6.0500002 7.5999999 -2.7755576e-17
6.0500002 7.5999999 0.1
6.0500002 7.5999999 0.2
6.0500002 7.5999999 0.30000001
6.0500002 7.5999999 0.40000001
6.0500002 7.5999999 0.5
6.0500002 7.5999999 0.60000002
6.0500002 7.5999999 0.69999999
6.0500002 7.5999999 0.80000001
6.0500002 7.5999999 0.89999998
6.0500002 7.5999999 1
6.0500002 7.5999999 1.1
6.0500002 7.5999999 1.2
6.0500002 7.5999999 1.3
6.0500002 7.5999999 1.4
6.0500002 7.5999999 1.5
6.0500002 7.5999999 1.6
6.0500002 7.5999999 1.7
6.0500002 7.5999999 1.8
6.0500002 7.5999999 1.9
6.0500002 7.5999999 2
6.0500002 7.5999999 2.0999999
6.0500002 7.5999999 2.2
6.0500002 7.5999999 2.3
6.0500002 7.5999999 2.4000001
6.0500002 7.5999999 2.5
6.0500002 7.5999999 2.5999999
6.0500002 7.5999999 2.7
6.0500002 7.5999999 2.8
6.0500002 7.5999999 2.9000001
6.0500002 7.5999999 3
6.0500002 7.5999999 3.0999999
6.0500002 7.5999999 3.2
6.0500002 7.5999999 3.3
6.0500002 7.5999999 3.4000001
6.1500001 7.5999999 -0.5
6.1500001 7.5999999 -0.40000001
6.1500001 7.5999999 -0.30000001
6.1500001 7.5999999 -0.2
6.1500001 7.5999999 -0.1
6.1500001 7.5999999 -2.7755576e-17
6.1500001 7.5999999 0.1
6.1500001 7.5999999 0.2
6.1500001 7.5999999 0.30000001
6.1500001 7.5999999 0.40000001
6.1500001 7.5999999 0.5
6.1500001 7.5999999 0.60000002
6.1500001 7.5999999 0.69999999
6.1500001 7.5999999 0.80000001
6.1500001 7.5999999 0.89999998
6.1500001 7.5999999 1
6.1500001 7.5999999 1.1
6.1500001 7.5999999 1.2
6.1500001 7.5999999 1.3
6.1500001 7.5999999 1.4
6.1500001 7.5999999 1.5
6.1500001 7.5999999 1.6
6.1500001 7.5999999 1.7
6.1500001 7.5999999 1.8
6.1500001 7.5999999 1.9
6.1500001 7.5999999 2
6.1500001 7.5999999 2.0999999
6.1500001 7.5999999 2.2
6.1500001 7.5999999 2.3
6.1500001 7.5999999 2.4000001
6.1500001 7.5999999 2.5
6.1500001 7.5999999 2.5999999
6.1500001 7.5999999 2.7
6.1500001 7.5999999 2.8
6.1500001 7.5999999 2.9000001
6.1500001 7.5999999 3
6.1500001 7.5999999 3.0999999
6.1500001 7.5999999 3.2
6.1500001 7.5999999 3.3
6.1500001 7.5999999 3.4000001
5.8499999 7.5 -0.5
5.8499999 7.5 -0.40000001
5.8499999 7.5 -0.30000001
5.8499999 7.5 -0.2
5.8499999 7.5 -0.1
5.8499999 7.5 -2.7755576e-17
5.8499999 7.5 0.1
5.8499999 7.5 0.2
5.8499999 7.5 0.30000001
5.8499999 7.5 0.40000001
5.8499999 7.5 0.5
5.8499999 7.5 0.60000002
5.8499999 7.5 0.69999999
5.8499999 7.5 0.80000001
5.8499999 7.5 0.89999998
5.8499999 7.5 1
5.8499999 7.5 1.1
5.8499999 7.5 1.2
5.8499999 7.5 1.3
5.8499999 7.5 1.4
5.8499999 7.5 1.5
5.8499999 7.5 1.6
5.8499999 7.5 1.7
5.8499999 7.5 1.8
5.8499999 7.5 1.9
5.8499999 7.5 2
5.8499999 7.5 2.0999999
5.8499999 7.5 2.2
5.8499999 7.5 2.3
5.8499999 7.5 2.4000001
5.8499999 7.5 2.5
5.8499999 7.5 2.5999999
5.8499999 7.5 2.7
5.8499999 7.5 2.8
5.8499999 7.5 2.9000001
5.8499999 7.5 3
5.8499999 7.5 3.0999999
5.8499999 7.5 3.2
5.8499999 7.5 3.3
5.8499999 7.5 3.4000001
5.9499998 7.5 -0.5
5.9499998 7.5 -0.40000001
5.9499998 7.5 -0.30000001
5.9499998 7.5 -0.2
5.9499998 7.5 -0.1
5.9499998 7.5 -2.7755576e-17
5.9499998 7.5 0.1
5.9499998 7.5 0.2
5.9499998 7.5 0.30000001
5.9499998 7.5 0.40000001
5.9499998 7.5 0.5
5.9499998 7.5 0.60000002
5.9499998 7.5 0.69999999
5.9499998 7.5 0.80000001
5.9499998 7.5 0.89999998
5.9499998 7.5 1
5.9499998 7.5 1.1
5.9499998 7.5 1.2
5.9499998 7.5 1.3
5.9499998 7.5 1.4
5.9499998 7.5 1.5
5.9499998 7.5 1.6
5.9499998 7.5 1.7
5.9499998 7.5 1.8
5.9499998 7.5 1.9
5.9499998 7.5 2
5.9499998 7.5 2.0999999
5.9499998 7.5 2.2
5.9499998 7.5 2.3
5.9499998 7.5 2.4000001
5.9499998 7.5 2.5
5.9499998 7.5 2.5999999
5.9499998 7.5 2.7
5.9499998 7.5 2.8
5.9499998 7.5 2.9000001
5.9499998 7.5 3
5.9499998 7.5 3.0999999
5.9499998 7.5 3.2
5.9499998 7.5 3.3
5.9499998 7.5 3.4000001
6.0500002 7.5 -0.5
6.0500002 7.5 -0.40000001
6.0500002 7.5 -0.30000001
6.0500002 7.5 -0.2
6.0500002 7.5 -0.1
6.0500002 7.5 -2.7755576e-17
6.0500002 7.5 0.1
6.0500002 7.5 0.2
6.0500002 7.5 0.30000001
6.0500002 7.5 0.40000001
6.0500002 7.5 0.5
6.0500002 7.5 0.60000002
6.0500002 7.5 0.69999999
6.0500002 7.5 0.80000001
6.0500002 7.5 0.89999998
6.0500002 7.5 1
6.0500002 7.5 1.1
6.0500002 7.5 1.2
6.0500002 7.5 1.3
6.0500002 7.5 1.4
6.0500002 7.5 1.5
6.0500002 7.5 1.6
6.0500002 7.5 1.7
6.0500002 7.5 1.8
6.0500002 7.5 1.9
6.0500002 7.5 2
6.0500002 7.5 2.0999999
6.0500002 7.5 2.2
6.0500002 7.5 2.3
6.0500002 7.5 2.4000001
6.0500002 7.5 2.5
6.0500002 7.5 2.5999999
6.0500002 7.5 2.7
6.0500002 7.5 2.8
6.0500002 7.5 2.9000001
6.0500002 7.5 3
6.0500002 7.5 3.0999999
6.0500002 7.5 3.2
6.0500002 7.5 3.3
6.0500002 7.5 3.4000001
6.1500001 7.5 -0.5
6.1500001 7.5 -0.40000001
6.1500001 7.5 -0.30000001
6.1500001 7.5 -0.2
6.1500001 7.5 -0.1
6.1500001 7.5 -2.7755576e-17
6.1500001 7.5 0.1
6.1500001 7.5 0.2
6.1500001 7.5 0.30000001
6.1500001 7.5 0.40000001
6.1500001 7.5 0.5
6.1500001 7.5 0.60000002
6.1500001 7.5 0.69999999
6.1500001 7.5 0.80000001
6.1500001 7.5 0.89999998
6.1500001 7.5 1
6.1500001 7.5 1.1
6.1500001 7.5 1.2
6.1500001 7.5 1.3
6.1500001 7.5 1.4
6.1500001 7.5 1.5
6.1500001 7.5 1.6
6.1500001 7.5 1.7
6.1500001 7.5 1.8
6.1500001 7.5 1.9
6.1500001 7.5 2
6.1500001 7.5 2.0999999
6.1500001 7.5 2.2
6.1500001 7.5 2.3
6.1500001 7.5 2.4000001
6.1500001 7.5 2.5
6.1500001 7.5 2.5999999
6.1500001 7.5 2.7
6.1500001 7.5 2.8
6.1500001 7.5 2.9000001
6.1500001 7.5 3
6.1500001 7.5 3.0999999
6.1500001 7.5 3.2
6.1500001 7.5 3.3
6.1500001 7.5 3.4000001
5.8499999 7.4000001 -0.5
5.8499999 7.4000001 -0.40000001
5.8499999 7.4000001 -0.30000001
5.8499999 7.4000001 -0.2
5.8499999 7.4000001 -0.1
5.8499999 7.4000001 -2.7755576e-17
5.8499999 7.4000001 0.1
5.8499999 7.4000001 0.2
5.8499999 7.4000001 0.30000001
5.8499999 7.4000001 0.40000001
5.8499999 7.4000001 0.5
5.8499999 7.4000001 0.60000002
5.8499999 7.4000001 0.69999999
5.8499999 7.4000001 0.80000001
5.8499999 7.4000001 0.89999998
5.8499999 7.4000001 1
5.8499999 7.4000001 1.1
5.8499999 7.4000001 1.2
5.8499999 7.4000001 1.3
5.8499999 7.4000001 1.4
5.8499999 7.4000001 1.5
5.8499999 7.4000001 1.6
5.8499999 7.4000001 1.7
5.8499999 7.4000001 1.8
5.8499999 7.4000001 1.9
5.8499999 7.4000001 2
5.8499999 7.4000001 2.0999999
5.8499999 7.4000001 2.2
5.8499999 7.4000001 2.3
5.8499999 7.4000001 2.4000001
5.8499999 7.4000001 2.5
5.8499999 7.4000001 2.5999999
5.8499999 7.4000001 2.7
5.8499999 7.4000001 2.8
5.8499999 7.4000001 2.9000001
5.8499999 7.4000001 3
5.8499999 7.4000001 3.0999999
5.8499999 7.4000001 3.2
5.8499999 7.4000001 3.3
5.8499999 7.4000001 3.4000001
5.9499998 7.4000001 -0.5
5.9499998 7.4000001 -0.40000001
5.9499998 7.4000001 -0.30000001
5.9499998 7.4000001 -0.2
5.9499998 7.4000001 -0.1
5.9499998 7.4000001 -2.7755576e-17
5.9499998 7.4000001 0.1
5.9499998 7.4000001 0.2
5.9499998 7.4000001 0.30000001
5.9499998 7.4000001 0.40000001
5.9499998 7.4000001 0.5
5.9499998 7.4000001 0.60000002
5.9499998 7.4000001 0.69999999
5.9499998 7.4000001 0.80000001
5.9499998 7.4000001 0.89999998
5.9499998 7.4000001 1
5.9499998 7.4000001 1.1
5.9499998 7.4000001 1.2
5.9499998 7.4000001 1.3
5.9499998 7.4000001 1.4
5.9499998 7.4000001 1.5
5.9499998 7.4000001 1.6
5.9499998 7.4000001 1.7
5.9499998 7.4000001 1.8
5.9499998 7.4000001 1.9
5.9499998 7.4000001 2
5.9499998 7.4000001 2.0999999
5.9499998 7.4000001 2.2
5.9499998 7.4000001 2.3
5.9499998 7.4000001 2.4000001
5.9499998 7.4000001 2.5
5.9499998 7.4000001 2.5999999
5.9499998 7.4000001 2.7
5.9499998 7.4000001 2.8
5.9499998 7.4000001 2.9000001
5.9499998 7.4000001 3
5.9499998 7.4000001 3.0999999
5.9499998 7.4000001 3.2
5.9499998 7.4000001 3.3
5.9499998 7.4000001 3.4000001
6.0500002 7.4000001 -0.5
6.0500002 7.4000001 -0.40000001
6.0500002 7.4000001 -0.30000001
6.0500002 7.4000001 -0.2
6.0500002 7.4000001 -0.1
6.0500002 7.4000001 -2.7755576e-17
6.0500002 7.4000001 0.1
6.0500002 7.4000001 0.2
6.0500002 7.4000001 0.30000001
6.0500002 7.4000001 0.40000001
6.0500002 7.4000001 0.5
6.0500002 7.4000001 0.60000002
6.0500002 7.4000001 0.69999999
6.0500002 7.4000001 0.80000001
6.0500002 7.4000001 0.89999998
6.0500002 7.4000001 1
6.0500002 7.4000001 1.1
6.0500002 7.4000001 1.2
6.0500002 7.4000001 1.3
6.0500002 7.4000001 1.4
6.0500002 7.4000001 1.5
6.0500002 7.4000001 1.6
6.0500002 7.4000001 1.7
6.0500002 7.4000001 1.8
6.0500002 7.4000001 1.9
6.0500002 7.4000001 2
6.0500002 7.4000001 2.0999999
6.0500002 7.4000001 2.2
6.0500002 7.4000001 2.3
6.0500002 7.4000001 2.4000001
6.0500002 7.4000001 2.5
6.0500002 7.4000001 2.5999999
6.0500002 7.4000001 2.7
6.0500002 7.4000001 2.8
6.0500002 7.4000001 2.9000001
6.0500002 7.4000001 3
6.0500002 7.4000001 3.0999999
6.0500002 7.4000001 3.2
6.0500002 7.4000001 3.3
6.0500002 7.4000001 3.4000001
6.1500001 7.4000001 -0.5
6.1500001 7.4000001 -0.40000001
6.1500001 7.4000001 -0.30000001
6.1500001 7.4000001 -0.2
6.1500001 7.4000001 -0.1
6.1500001 7.4000001 -2.7755576e-17
6.1500001 7.4000001 0.1
6.1500001 7.4000001 0.2
6.1500001 7.4000001 0.30000001
6.1500001 7.4000001 0.40000001
6.1500001 7.4000001 0.5
6.1500001 7.4000001 0.60000002
6.1500001 7.4000001 0.69999999
6.1500001 7.4000001 0.80000001
6.1500001 7.4000001 0.89999998
6.1500001 7.4000001 1
6.1500001 7.4000001 1.1
6.1500001 7.4000001 1.2
6.1500001 7.4000001 1.3
6.1500001 7.4000001 1.4
6.1500001 7.4000001 1.5
6.1500001 7.4000001 1.6
6.1500001 7.4000001 1.7
6.1500001 7.4000001 1.8
6.1500001 7.4000001 1.9
6.1500001 7.4000001 2
6.1500001 7.4000001 2.0999999
6.1500001 7.4000001 2.2
6.1500001 7.4000001 2.3
6.1500001 7.4000001 2.4000001
6.1500001 7.4000001 2.5
6.1500001 7.4000001 2.5999999
6.1500001 7.4000001 2.7
6.1500001 7.4000001 2.8
6.1500001 7.4000001 2.9000001
6.1500001 7.4000001 3
6.1500001 7.4000001 3.0999999
6.1500001 7.4000001 3.2
6.1500001 7.4000001 3.3
6.1500001 7.4000001 3.4000001
5.8499999 7.3000002 -0.5
5.8499999 7.3000002 -0.40000001
5.8499999 7.3000002 -0.30000001
5.8499999 7.3000002 -0.2
5.8499999 7.3000002 -0.1
5.8499999 7.3000002 -2.7755576e-17
5.8499999 7.3000002 0.1
5.8499999 7.3000002 0.2
5.8499999 7.3000002 0.30000001
5.8499999 7.3000002 0.40000001
5.8499999 7.3000002 0.5
5.8499999 7.3000002 0.60000002
5.8499999 7.3000002 0.69999999
5.8499999 7.3000002 0.80000001
5.8499999 7.3000002 0.89999998
5.8499999 7.3000002 1
5.8499999 7.3000002 1.1
5.8499999 7.3000002 1.2
5.8499999 7.3000002 1.3
5.8499999 7.3000002 1.4
5.8499999 7.3000002 1.5
5.8499999 7.3000002 1.6
5.8499999 7.3000002 1.7
5.8499999 7.3000002 1.8
5.8499999 7.3000002 1.9
5.8499999 7.3000002 2
5.8499999 7.3000002 2.0999999
5.8499999 7.3000002 2.2
5.8499999 7.3000002 2.3
5.8499999 7.3000002 2.4000001
5.8499999 7.3000002 2.5
5.8499999 7.3000002 2.5999999
5.8499999 7.3000002 2.7
5.8499999 7.3000002 2.8
5.8499999 7.3000002 2.9000001
5.8499999 7.3000002 3
5.8499999 7.3000002 3.0999999
5.8499999 7.3000002 3.2
5.8499999 7.3000002 3.3
5.8499999 7.3000002 3.4000001
5.9499998 7.3000002 -0.5
5.9499998 7.3000002 -0.40000001
5.9499998 7.3000002 -0.30000001
5.9499998 7.3000002 -0.2
5.9499998 7.3000002 -0.1
5.9499998 7.3000002 -2.7755576e-17
5.9499998 7.3000002 0.1
5.9499998 7.3000002 0.2
5.9499998 7.3000002 0.30000001
5.9499998 7.3000002 0.40000001
5.9499998 7.3000002 0.5
5.9499998 7.3000002 0.60000002
5.9499998 7.3000002 0.69999999
5.9499998 7.3000002 0.80000001
5.9499998 7.3000002 0.89999998
5.9499998 7.3000002 1
5.9499998 7.3000002 1.1
5.9499998 7.3000002 1.2
5.9499998 7.3000002 1.3
5.9499998 7.3000002 1.4
5.9499998 7.3000002 1.5
5.9499998 7.3000002 1.6
5.9499998 7.3000002 1.7
5.9499998 7.3000002 1.8
5.9499998 7.3000002 1.9
5.9499998 7.3000002 2
5.9499998 7.3000002 2.0999999
5.9499998 7.3000002 2.2
5.9499998 7.3000002 2.3
5.9499998 7.3000002 2.4000001
5.9499998 7.3000002 2.5
5.9499998 7.3000002 2.5999999
5.9499998 7.3000002 2.7
5.9499998 7.3000002 2.8
5.9499998 7.3000002 2.9000001
5.9499998 7.3000002 3
5.9499998 7.3000002 3.0999999
5.9499998 7.3000002 3.2
5.9499998 7.3000002 3.3
5.9499998 7.3000002 3.4000001
6.0500002 7.3000002 -0.5
6.0500002 7.3000002 -0.40000001
6.0500002 7.3000002 -0.30000001
6.0500002 7.3000002 -0.2
6.0500002 7.3000002 -0.1
6.0500002 7.3000002 -2.7755576e-17
6.0500002 7.3000002 0.1
6.0500002 7.3000002 0.2
6.0500002 7.3000002 0.30000001
6.0500002 7.3000002 0.40000001
6.0500002 7.3000002 0.5
6.0500002 7.3000002 0.60000002
6.0500002 7.3000002 0.69999999
6.0500002 7.3000002 0.80000001
6.0500002 7.3000002 0.89999998
6.0500002 7.3000002 1
6.0500002 7.3000002 1.1
6.0500002 7.3000002 1.2
6.0500002 7.3000002 1.3
6.0500002 7.3000002 1.4
6.0500002 7.3000002 1.5
6.0500002 7.3000002 1.6
6.0500002 7.3000002 1.7
6.0500002 7.3000002 1.8
6.0500002 7.3000002 1.9
6.0500002 7.3000002 2
6.0500002 7.3000002 2.0999999
6.0500002 7.3000002 2.2
6.0500002 7.3000002 2.3
6.0500002 7.3000002 2.4000001
6.0500002 7.3000002 2.5
6.0500002 7.3000002 2.5999999
6.0500002 7.3000002 2.7
6.0500002 7.3000002 2.8
6.0500002 7.3000002 2.9000001
6.0500002 7.3000002 3
6.0500002 7.3000002 3.0999999
6.0500002 7.3000002 3.2
6.0500002 7.3000002 3.3
6.0500002 7.3000002 3.4000001
6.1500001 7.3000002 -0.5
6.1500001 7.3000002 -0.40000001
6.1500001 7.3000002 -0.30000001
6.1500001 7.3000002 -0.2
6.1500001 7.3000002 -0.1
6.1500001 7.3000002 -2.7755576e-17
6.1500001 7.3000002 0.1
6.1500001 7.3000002 0.2
6.1500001 7.3000002 0.30000001
6.1500001 7.3000002 0.40000001
6.1500001 7.3000002 0.5
6.1500001 7.3000002 0.60000002
6.1500001 7.3000002 0.69999999
6.1500001 7.3000002 0.80000001
6.1500001 7.3000002 0.89999998
6.1500001 7.3000002 1
6.1500001 7.3000002 1.1
6.1500001 7.3000002 1.2
6.1500001 7.3000002 1.3
6.1500001 7.3000002 1.4
6.1500001 7.3000002 1.5
6.1500001 7.3000002 1.6
6.1500001 7.3000002 1.7
6.1500001 7.3000002 1.8
6.1500001 7.3000002 1.9
6.1500001 7.3000002 2
6.1500001 7.3000002 2.0999999
6.1500001 7.3000002 2.2
6.1500001 7.3000002 2.3
6.1500001 7.3000002 2.4000001
6.1500001 7.3000002 2.5
6.1500001 7.3000002 2.5999999
6.1500001 7.3000002 2.7
6.1500001 7.3000002 2.8
6.1500001 7.3000002 2.9000001
6.1500001 7.3000002 3
6.1500001 7.3000002 3.0999999
6.1500001 7.3000002 3.2
6.1500001 7.3000002 3.3
6.1500001 7.3000002 3.4000001
5.8499999 7.1999998 -0.5
5.8499999 7.1999998 -0.40000001
5.8499999 7.1999998 -0.30000001
5.8499999 7.1999998 -0.2
5.8499999 7.1999998 -0.1
5.8499999 7.1999998 -2.7755576e-17
5.8499999 7.1999998 0.1
5.8499999 7.1999998 0.2
5.8499999 7.1999998 0.30000001
5.8499999 7.1999998 0.40000001
5.8499999 7.1999998 0.5
5.8499999 7.1999998 0.60000002
5.8499999 7.1999998 0.69999999
5.8499999 7.1999998 0.80000001
5.8499999 7.1999998 0.89999998
5.8499999 7.1999998 1
5.8499999 7.1999998 1.1
5.8499999 7.1999998 1.2
5.8499999 7.1999998 1.3
5.8499999 7.1999998 1.4
5.8499999 7.1999998 1.5
5.8499999 7.1999998 1.6
5.8499999 7.1999998 1.7
5.8499999 7.1999998 1.8
5.8499999 7.1999998 1.9
5.8499999 7.1999998 2
5.8499999 7.1999998 2.0999999
5.8499999 7.1999998 2.2
5.8499999 7.1999998 2.3
5.8499999 7.1999998 2.4000001
5.8499999 7.1999998 2.5
5.8499999 7.1999998 2.5999999
5.8499999 7.1999998 2.7
5.8499999 7.1999998 2.8
5.8499999 7.1999998 2.9000001
5.8499999 7.1999998 3
5.8499999 7.1999998 3.0999999
5.8499999 7.1999998 3.2
5.8499999 7.1999998 3.3
5.8499999 7.1999998 3.4000001
5.9499998 7.1999998 -0.5
5.9499998 7.1999998 -0.40000001
5.9499998 7.1999998 -0.30000001
5.9499998 7.1999998 -0.2
5.9499998 7.1999998 -0.1
5.9499998 7.1999998 -2.7755576e-17
5.9499998 7.1999998 0.1
5.9499998 7.1999998 0.2
5.9499998 7.1999998 0.30000001
5.9499998 7.1999998 0.40000001
5.9499998 7.1999998 0.5
5.9499998 7.1999998 0.60000002
5.9499998 7.1999998 0.69999999
5.9499998 7.1999998 0.80000001
5.9499998 7.1999998 0.89999998
5.9499998 7.1999998 1
5.9499998 7.1999998 1.1
5.9499998 7.1999998 1.2
5.9499998 7.1999998 1.3
5.9499998 7.1999998 1.4
5.9499998 7.1999998 1.5
5.9499998 7.1999998 1.6
5.9499998 7.1999998 1.7
5.9499998 7.1999998 1.8
5.9499998 7.1999998 1.9
5.9499998 7.1999998 2
5.9499998 7.1999998 2.0999999
5.9499998 7.1999998 2.2
5.9499998 7.1999998 2.3
5.9499998 7.1999998 2.4000001
5.9499998 7.1999998 2.5
5.9499998 7.1999998 2.5999999
5.9499998 7.1999998 2.7
5.9499998 7.1999998 2.8
5.9499998 7.1999998 2.9000001
5.9499998 7.1999998 3
5.9499998 7.1999998 3.0999999
5.9499998 7.1999998 3.2
5.9499998 7.1999998 3.3
5.9499998 7.1999998 3.4000001
6.0500002 7.1999998 -0.5
6.0500002 7.1999998 -0.40000001
6.0500002 7.1999998 -0.30000001
6.0500002 7.1999998 -0.2
6.0500002 7.1999998 -0.1
6.0500002 7.1999998 -2.7755576e-17
6.0500002 7.1999998 0.1
6.0500002 7.1999998 0.2
6.0500002 7.1999998 0.30000001
6.0500002 7.1999998 0.40000001
6.0500002 7.1999998 0.5
6.0500002 7.1999998 0.60000002
6.0500002 7.1999998 0.69999999
6.0500002 7.1999998 0.80000001
6.0500002 7.1999998 0.89999998
6.0500002 7.1999998 1
6.0500002 7.1999998 1.1
6.0500002 7.1999998 1.2
6.0500002 7.1999998 1.3
6.0500002 7.1999998 1.4
6.0500002 7.1999998 1.5
6.0500002 7.1999998 1.6
6.0500002 7.1999998 1.7
6.0500002 7.1999998 1.8
6.0500002 7.1999998 1.9
6.0500002 7.1999998 2
6.0500002 7.1999998 2.0999999
6.0500002 7.1999998 2.2
6.0500002 7.1999998 2.3
6.0500002 7.1999998 2.4000001
6.0500002 7.1999998 2.5
6.0500002 7.1999998 2.5999999
6.0500002 7.1999998 2.7
6.0500002 7.1999998 2.8
6.0500002 7.1999998 2.9000001
6.0500002 7.1999998 3
6.0500002 7.1999998 3.0999999
6.0500002 7.1999998 3.2
6.0500002 7.1999998 3.3
6.0500002 7.1999998 3.4000001
6.1500001 7.1999998 -0.5
6.1500001 7.1999998 -0.40000001
6.1500001 7.1999998 -0.30000001
6.1500001 7.1999998 -0.2
6.1500001 7.1999998 -0.1
6.1500001 7.1999998 -2.7755576e-17
6.1500001 7.1999998 0.1
6.1500001 7.1999998 0.2
6.1500001 7.1999998 0.30000001
6.1500001 7.1999998 0.40000001
6.1500001 7.1999998 0.5
6.1500001 7.1999998 0.60000002
6.1500001 7.1999998 0.69999999
6.1500001 7.1999998 0.80000001
6.1500001 7.1999998 0.89999998
6.1500001 7.1999998 1
6.1500001 7.1999998 1.1
6.1500001 7.1999998 1.2
6.1500001 7.1999998 1.3
6.1500001 7.1999998 1.4
6.1500001 7.1999998 1.5
6.1500001 7.1999998 1.6
6.1500001 7.1999998 1.7
6.1500001 7.1999998 1.8
6.1500001 7.1999998 1.9
6.1500001 7.1999998 2
6.1500001 7.1999998 2.0999999
6.1500001 7.1999998 2.2
6.1500001 7.1999998 2.3
6.1500001 7.1999998 2.4000001
6.1500001 7.1999998 2.5
6.1500001 7.1999998 2.5999999
6.1500001 7.1999998 2.7
6.1500001 7.1999998 2.8
6.1500001 7.1999998 2.9000001
6.1500001 7.1999998 3
6.1500001 7.1999998 3.0999999
6.1500001 7.1999998 3.2
6.1500001 7.1999998 3.3
6.1500001 7.1999998 3.4000001
5.8499999 7.0999999 -0.5
5.8499999 7.0999999 -0.40000001
5.8499999 7.0999999 -0.30000001
5.8499999 7.0999999 -0.2
5.8499999 7.0999999 -0.1
5.8499999 7.0999999 -2.7755576e-17
5.8499999 7.0999999 0.1
5.8499999 7.0999999 0.2
5.8499999 7.0999999 0.30000001
5.8499999 7.0999999 0.40000001
5.8499999 7.0999999 0.5
5.8499999 7.0999999 0.60000002
5.8499999 7.0999999 0.69999999
5.8499999 7.0999999 0.80000001
5.8499999 7.0999999 0.89999998
5.8499999 7.0999999 1
5.8499999 7.0999999 1.1
5.8499999 7.0999999 1.2
5.8499999 7.0999999 1.3
5.8499999 7.0999999 1.4
5.8499999 7.0999999 1.5
5.8499999 7.0999999 1.6
5.8499999 7.0999999 1.7
5.8499999 7.0999999 1.8
5.8499999 7.0999999 1.9
5.8499999 7.0999999 2
5.8499999 7.0999999 2.0999999
5.8499999 7.0999999 2.2
5.8499999 7.0999999 2.3
5.8499999 7.0999999 2.4000001
5.8499999 7.0999999 2.5
5.8499999 7.0999999 2.5999999
5.8499999 7.0999999 2.7
5.8499999 7.0999999 2.8
5.8499999 7.0999999 2.9000001
5.8499999 7.0999999 3
5.8499999 7.0999999 3.0999999
5.8499999 7.0999999 3.2
5.8499999 7.0999999 3.3
5.8499999 7.0999999 3.4000001
5.9499998 7.0999999 -0.5
5.9499998 7.0999999 -0.40000001
5.9499998 7.0999999 -0.30000001
5.9499998 7.0999999 -0.2
5.9499998 7.0999999 -0.1
5.9499998 7.0999999 -2.7755576e-17
5.9499998 7.0999999 0.1
5.9499998 7.0999999 0.2
5.9499998 7.0999999 0.30000001
5.9499998 7.0999999 0.40000001
5.9499998 7.0999999 0.5
5.9499998 7.0999999 0.60000002
5.9499998 7.0999999 0.69999999
5.9499998 7.0999999 0.80000001
5.9499998 7.0999999 0.89999998
5.9499998 7.0999999 1
5.9499998 7.0999999 1.1
5.9499998 7.0999999 1.2
5.9499998 7.0999999 1.3
5.9499998 7.0999999 1.4
5.9499998 7.0999999 1.5
5.9499998 7.0999999 1.6
5.9499998 7.0999999 1.7
5.9499998 7.0999999 1.8
5.9499998 7.0999999 1.9
5.9499998 7.0999999 2
5.9499998 7.0999999 2.0999999
5.9499998 7.0999999 2.2
5.9499998 7.0999999 2.3
5.9499998 7.0999999 2.4000001
5.9499998 7.0999999 2.5
5.9499998 7.0999999 2.5999999
5.9499998 7.0999999 2.7
5.9499998 7.0999999 2.8
5.9499998 7.0999999 2.9000001
5.9499998 7.0999999 3
5.9499998 7.0999999 3.0999999
5.9499998 7.0999999 3.2
5.9499998 7.0999999 3.3
5.9499998 7.0999999 3.4000001
6.0500002 7.0999999 -0.5
6.0500002 7.0999999 -0.40000001
6.0500002 7.0999999 -0.30000001
6.0500002 7.0999999 -0.2
6.0500002 7.0999999 -0.1
6.0500002 7.0999999 -2.7755576e-17
6.0500002 7.0999999 0.1
6.0500002 7.0999999 0.2
6.0500002 7.0999999 0.30000001
6.0500002 7.0999999 0.40000001
6.0500002 7.0999999 0.5
6.0500002 7.0999999 0.60000002
6.0500002 7.0999999 0.69999999
6.0500002 7.0999999 0.80000001
6.0500002 7.0999999 0.89999998
6.0500002 7.0999999 1
6.0500002 7.0999999 1.1
6.0500002 7.0999999 1.2
6.0500002 7.0999999 1.3
6.0500002 7.0999999 1.4
6.0500002 7.0999999 1.5
6.0500002 7.0999999 1.6
6.0500002 7.0999999 1.7
6.0500002 7.0999999 1.8
6.0500002 7.0999999 1.9
6.0500002 7.0999999 2
6.0500002 7.0999999 2.0999999
6.0500002 7.0999999 2.2
6.0500002 7.0999999 2.3
6.0500002 7.0999999 2.4000001
6.0500002 7.0999999 2.5
6.0500002 7.0999999 2.5999999
6.0500002 7.0999999 2.7
6.0500002 7.0999999 2.8
6.0500002 7.0999999 2.9000001
6.0500002 7.0999999 3
6.0500002 7.0999999 3.0999999
6.0500002 7.0999999 3.2
6.0500002 7.0999999 3.3
6.0500002 7.0999999 3.4000001
6.1500001 7.0999999 -0.5
6.1500001 7.0999999 -0.40000001
6.1500001 7.0999999 -0.30000001
6.1500001 7.0999999 -0.2
6.1500001 7.0999999 -0.1
6.1500001 7.0999999 -2.7755576e-17
6.1500001 7.0999999 0.1
6.1500001 7.0999999 0.2
6.1500001 7.0999999 0.30000001
6.1500001 7.0999999 0.40000001
6.1500001 7.0999999 0.5
6.1500001 7.0999999 0.60000002
6.1500001 7.0999999 0.69999999
6.1500001 7.0999999 0.80000001
6.1500001 7.0999999 0.89999998
6.1500001 7.0999999 1
6.1500001 7.0999999 1.1
6.1500001 7.0999999 1.2
6.1500001 7.0999999 1.3
6.1500001 7.0999999 1.4
6.1500001 7.0999999 1.5
6.1500001 7.0999999 1.6
6.1500001 7.0999999 1.7
6.1500001 7.0999999 1.8
6.1500001 7.0999999 1.9
6.1500001 7.0999999 2
6.1500001 7.0999999 2.0999999
6.1500001 7.0999999 2.2
6.1500001 7.0999999 2.3
6.1500001 7.0999999 2.4000001
6.1500001 7.0999999 2.5
6.1500001 7.0999999 2.5999999
6.1500001 7.0999999 2.7
6.1500001 7.0999999 2.8
6.1500001 7.0999999 2.9000001
6.1500001 7.0999999 3
6.1500001 7.0999999 3.0999999
6.1500001 7.0999999 3.2
6.1500001 7.0999999 3.3
6.1500001 7.0999999 3.4000001
5.8499999 7 -0.5
5.8499999 7 -0.40000001
5.8499999 7 -0.30000001
5.8499999 7 -0.2
5.8499999 7 -0.1
5.8499999 7 -2.7755576e-17
5.8499999 7 0.1
5.8499999 7 0.2
5.8499999 7 0.30000001
5.8499999 7 0.40000001
5.8499999 7 0.5
5.8499999 7 0.60000002
5.8499999 7 0.69999999
5.8499999 7 0.80000001
5.8499999 7 0.89999998
5.8499999 7 1
5.8499999 7 1.1
5.8499999 7 1.2
5.8499999 7 1.3
5.8499999 7 1.4
5.8499999 7 1.5
5.8499999 7 1.6
5.8499999 7 1.7
5.8499999 7 1.8
5.8499999 7 1.9
5.8499999 7 2
5.8499999 7 2.0999999
5.8499999 7 2.2
5.8499999 7 2.3
5.8499999 7 2.4000001
5.8499999 7 2.5
5.8499999 7 2.5999999
5.8499999 7 2.7
5.8499999 7 2.8
5.8499999 7 2.9000001
5.8499999 7 3
5.8499999 7 3.0999999
5.8499999 7 3.2
5.8499999 7 3.3
5.8499999 7 3.4000001
5.9499998 7 -0.5
5.9499998 7 -0.40000001
5.9499998 7 -0.30000001
5.9499998 7 -0.2
5.9499998 7 -0.1
5.9499998 7 -2.7755576e-17
5.9499998 7 0.1
5.9499998 7 0.2
5.9499998 7 0.30000001
5.9499998 7 0.40000001
5.9499998 7 0.5
5.9499998 7 0.60000002
5.9499998 7 0.69999999
5.9499998 7 0.80000001
5.9499998 7 0.89999998
5.9499998 7 1
5.9499998 7 1.1
5.9499998 7 1.2
5.9499998 7 1.3
5.9499998 7 1.4
5.9499998 7 1.5
5.9499998 7 1.6
5.9499998 7 1.7
5.9499998 7 1.8
5.9499998 7 1.9
5.9499998 7 2
5.9499998 7 2.0999999
5.9499998 7 2.2
5.9499998 7 2.3
5.9499998 7 2.4000001
5.9499998 7 2.5
5.9499998 7 2.5999999
5.9499998 7 2.7
5.9499998 7 2.8
5.9499998 7 2.9000001
5.9499998 7 3
5.9499998 7 3.0999999
5.9499998 7 3.2
5.9499998 7 3.3
5.9499998 7 3.4000001
6.0500002 7 -0.5
6.0500002 7 -0.40000001
6.0500002 7 -0.30000001
6.0500002 7 -0.2
6.0500002 7 -0.1
6.0500002 7 -2.7755576e-17
6.0500002 7 0.1
6.0500002 7 0.2
6.0500002 7 0.30000001
6.0500002 7 0.40000001
6.0500002 7 0.5
6.0500002 7 0.60000002
6.0500002 7 0.69999999
6.0500002 7 0.80000001
6.0500002 7 0.89999998
6.0500002 7 1
6.0500002 7 1.1
6.0500002 7 1.2
6.0500002 7 1.3
6.0500002 7 1.4
6.0500002 7 1.5
6.0500002 7 1.6
6.0500002 7 1.7
6.0500002 7 1.8
6.0500002 7 1.9
6.0500002 7 2
6.0500002 7 2.0999999
6.0500002 7 2.2
6.0500002 7 2.3
6.0500002 7 2.4000001
6.0500002 7 2.5
6.0500002 7 2.5999999
6.0500002 7 2.7
6.0500002 7 2.8
6.0500002 7 2.9000001
6.0500002 7 3
6.0500002 7 3.0999999
6.0500002 7 3.2
6.0500002 7 3.3
6.0500002 7 3.4000001
6.1500001 7 -0.5
6.1500001 7 -0.40000001
6.1500001 7 -0.30000001
6.1500001 7 -0.2
6.1500001 7 -0.1
6.1500001 7 -2.7755576e-17
6.1500001 7 0.1
6.1500001 7 0.2
6.1500001 7 0.30000001
6.1500001 7 0.40000001
6.1500001 7 0.5
6.1500001 7 0.60000002
6.1500001 7 0.69999999
6.1500001 7 0.80000001
6.1500001 7 0.89999998
6.1500001 7 1
6.1500001 7 1.1
6.1500001 7 1.2
6.1500001 7 1.3
6.1500001 7 1.4
6.1500001 7 1.5
6.1500001 7 1.6
6.1500001 7 1.7
6.1500001 7 1.8
6.1500001 7 1.9
6.1500001 7 2
6.1500001 7 2.0999999
6.1500001 7 2.2
6.1500001 7 2.3
6.1500001 7 2.4000001
6.1500001 7 2.5
6.1500001 7 2.5999999
6.1500001 7 2.7
6.1500001 7 2.8
6.1500001 7 2.9000001
6.1500001 7 3
6.1500001 7 3.0999999
6.1500001 7 3.2
6.1500001 7 3.3
6.1500001 7 3.4000001
5.8499999 6.9000001 -0.5
5.8499999 6.9000001 -0.40000001
5.8499999 6.9000001 -0.30000001
5.8499999 6.9000001 -0.2
5.8499999 6.9000001 -0.1
5.8499999 6.9000001 -2.7755576e-17
5.8499999 6.9000001 0.1
5.8499999 6.9000001 0.2
5.8499999 6.9000001 0.30000001
5.8499999 6.9000001 0.40000001
5.8499999 6.9000001 0.5
5.8499999 6.9000001 0.60000002
5.8499999 6.9000001 0.69999999
5.8499999 6.9000001 0.80000001
5.8499999 6.9000001 0.89999998
5.8499999 6.9000001 1
5.8499999 6.9000001 1.1
5.8499999 6.9000001 1.2
5.8499999 6.9000001 1.3
5.8499999 6.9000001 1.4
5.8499999 6.9000001 1.5
5.8499999 6.9000001 1.6
5.8499999 6.9000001 1.7
5.8499999 6.9000001 1.8
5.8499999 6.9000001 1.9
5.8499999 6.9000001 2
5.8499999 6.9000001 2.0999999
5.8499999 6.9000001 2.2
5.8499999 6.9000001 2.3
5.8499999 6.9000001 2.4000001
5.8499999 6.9000001 2.5
5.8499999 6.9000001 2.5999999
5.8499999 6.9000001 2.7
5.8499999 6.9000001 2.8
5.8499999 6.9000001 2.9000001
5.8499999 6.9000001 3
5.8499999 6.9000001 3.0999999
5.8499999 6.9000001 3.2
5.8499999 6.9000001 3.3
5.8499999 6.9000001 3.4000001
5.9499998 6.9000001 -0.5
5.9499998 6.9000001 -0.40000001
5.9499998 6.9000001 -0.30000001
5.9499998 6.9000001 -0.2
5.9499998 6.9000001 -0.1
5.9499998 6.9000001 -2.7755576e-17
5.9499998 6.9000001 0.1
5.9499998 6.9000001 0.2
5.9499998 6.9000001 0.30000001
5.9499998 6.9000001 0.40000001
5.9499998 6.9000001 0.5
5.9499998 6.9000001 0.60000002
5.9499998 6.9000001 0.69999999
5.9499998 6.9000001 0.80000001
5.9499998 6.9000001 0.89999998
5.9499998 6.9000001 1
5.9499998 6.9000001 1.1
5.9499998 6.9000001 1.2
5.9499998 6.9000001 1.3
5.9499998 6.9000001 1.4
5.9499998 6.9000001 1.5
5.9499998 6.9000001 1.6
5.9499998 6.9000001 1.7
5.9499998 6.9000001 1.8
5.9499998 6.9000001 1.9
5.9499998 6.9000001 2
5.9499998 6.9000001 2.0999999
5.9499998 6.9000001 2.2
5.9499998 6.9000001 2.3
5.9499998 6.9000001 2.4000001
5.9499998 6.9000001 2.5
5.9499998 6.9000001 2.5999999
5.9499998 6.9000001 2.7
5.9499998 6.9000001 2.8
5.9499998 6.9000001 2.9000001
5.9499998 6.9000001 3
5.9499998 6.9000001 3.0999999
5.9499998 6.9000001 3.2
5.9499998 6.9000001 3.3
5.9499998 6.9000001 3.4000001
6.0500002 6.9000001 -0.5
6.0500002 6.9000001 -0.40000001
6.0500002 6.9000001 -0.30000001
6.0500002 6.9000001 -0.2
6.0500002 6.9000001 -0.1
6.0500002 6.9000001 -2.7755576e-17
6.0500002 6.9000001 0.1
6.0500002 6.9000001 0.2
6.0500002 6.9000001 0.30000001
6.0500002 6.9000001 0.40000001
6.0500002 6.9000001 0.5
6.0500002 6.9000001 0.60000002
6.0500002 6.9000001 0.69999999
6.0500002 6.9000001 0.80000001
6.0500002 6.9000001 0.89999998
6.0500002 6.9000001 1
6.0500002 6.9000001 1.1
6.0500002 6.9000001 1.2
6.0500002 6.9000001 1.3
6.0500002 6.9000001 1.4
6.0500002 6.9000001 1.5
6.0500002 6.9000001 1.6
6.0500002 6.9000001 1.7
6.0500002 6.9000001 1.8
6.0500002 6.9000001 1.9
6.0500002 6.9000001 2
6.0500002 6.9000001 2.0999999
6.0500002 6.9000001 2.2
6.0500002 6.9000001 2.3
6.0500002 6.9000001 2.4000001
6.0500002 6.9000001 2.5
6.0500002 6.9000001 2.5999999
6.0500002 6.9000001 2.7
6.0500002 6.9000001 2.8
6.0500002 6.9000001 2.9000001
6.0500002 6.9000001 3
6.0500002 6.9000001 3.0999999
6.0500002 6.9000001 3.2
6.0500002 6.9000001 3.3
6.0500002 6.9000001 3.4000001
6.1500001 6.9000001 -0.5
6.1500001 6.9000001 -0.40000001
6.1500001 6.9000001 -0.30000001
6.1500001 6.9000001 -0.2
6.1500001 6.9000001 -0.1
6.1500001 6.9000001 -2.7755576e-17
6.1500001 6.9000001 0.1
6.1500001 6.9000001 0.2
6.1500001 6.9000001 0.30000001
6.1500001 6.9000001 0.40000001
6.1500001 6.9000001 0.5
6.1500001 6.9000001 0.60000002
6.1500001 6.9000001 0.69999999
6.1500001 6.9000001 0.80000001
6.1500001 6.9000001 0.89999998
6.1500001 6.9000001 1
6.1500001 6.9000001 1.1
6.1500001 6.9000001 1.2
6.1500001 6.9000001 1.3
6.1500001 6.9000001 1.4
6.1500001 6.9000001 1.5
6.1500001 6.9000001 1.6
6.1500001 6.9000001 1.7
6.1500001 6.9000001 1.8
6.1500001 6.9000001 1.9
6.1500001 6.9000001 2
6.1500001 6.9000001 2.0999999
6.1500001 6.9000001 2.2
6.1500001 6.9000001 2.3
6.1500001 6.9000001 2.4000001
6.1500001 6.9000001 2.5
6.1500001 6.9000001 2.5999999
6.1500001 6.9000001 2.7
6.1500001 6.9000001 2.8
6.1500001 6.9000001 2.9000001
6.1500001 6.9000001 3
6.1500001 6.9000001 3.0999999
6.1500001 6.9000001 3.2
6.1500001 6.9000001 3.3
6.1500001 6.9000001 3.4000001
5.8499999 6.8000002 -0.5
5.8499999 6.8000002 -0.40000001
5.8499999 6.8000002 -0.30000001
5.8499999 6.8000002 -0.2
5.8499999 6.8000002 -0.1
5.8499999 6.8000002 -2.7755576e-17
5.8499999 6.8000002 0.1
5.8499999 6.8000002 0.2
5.8499999 6.8000002 0.30000001
5.8499999 6.8000002 0.40000001
5.8499999 6.8000002 0.5
5.8499999 6.8000002 0.60000002
5.8499999 6.8000002 0.69999999
5.8499999 6.8000002 0.80000001
5.8499999 6.8000002 0.89999998
5.8499999 6.8000002 1
5.8499999 6.8000002 1.1
5.8499999 6.8000002 1.2
5.8499999 6.8000002 1.3
5.8499999 6.8000002 1.4
5.8499999 6.8000002 1.5
5.8499999 6.8000002 1.6
5.8499999 6.8000002 1.7
5.8499999 6.8000002 1.8
5.8499999 6.8000002 1.9
5.8499999 6.8000002 2
5.8499999 6.8000002 2.0999999
5.8499999 6.8000002 2.2
5.8499999 6.8000002 2.3
5.8499999 6.8000002 2.4000001
5.8499999 6.8000002 2.5
5.8499999 6.8000002 2.5999999
5.8499999 6.8000002 2.7
5.8499999 6.8000002 2.8
5.8499999 6.8000002 2.9000001
5.8499999 6.8000002 3
5.8499999 6.8000002 3.0999999
5.8499999 6.8000002 3.2
5.8499999 6.8000002 3.3
5.8499999 6.8000002 3.4000001
5.9499998 6.8000002 -0.5
5.9499998 6.8000002 -0.40000001
5.9499998 6.8000002 -0.30000001
5.9499998 6.8000002 -0.2
5.9499998 6.8000002 -0.1
5.9499998 6.8000002 -2.7755576e-17
5.9499998 6.8000002 0.1
5.9499998 6.8000002 0.2
5.9499998 6.8000002 0.30000001
5.9499998 6.8000002 0.40000001
5.9499998 6.8000002 0.5
5.9499998 6.8000002 0.60000002
5.9499998 6.8000002 0.69999999
5.9499998 6.8000002 0.80000001
5.9499998 6.8000002 0.89999998
5.9499998 6.8000002 1
5.9499998 6.8000002 1.1
5.9499998 6.8000002 1.2
5.9499998 6.8000002 1.3
5.9499998 6.8000002 1.4
5.9499998 6.8000002 1.5
5.9499998 6.8000002 1.6
5.9499998 6.8000002 1.7
5.9499998 6.8000002 1.8
5.9499998 6.8000002 1.9
5.9499998 6.8000002 2
5.9499998 6.8000002 2.0999999
5.9499998 6.8000002 2.2
5.9499998 6.8000002 2.3
5.9499998 6.8000002 2.4000001
5.9499998 6.8000002 2.5
5.9499998 6.8000002 2.5999999
5.9499998 6.8000002 2.7
5.9499998 6.8000002 2.8
5.9499998 6.8000002 2.9000001
5.9499998 6.8000002 3
5.9499998 6.8000002 3.0999999
5.9499998 6.8000002 3.2
5.9499998 6.8000002 3.3
5.9499998 6.8000002 3.4000001
6.0500002 6.8000002 -0.5
6.0500002 6.8000002 -0.40000001
6.0500002 6.8000002 -0.30000001
6.0500002 6.8000002 -0.2
6.0500002 6.8000002 -0.1
6.0500002 6.8000002 -2.7755576e-17
6.0500002 6.8000002 0.1
6.0500002 6.8000002 0.2
6.0500002 6.8000002 0.30000001
6.0500002 6.8000002 0.40000001
6.0500002 6.8000002 0.5
6.0500002 6.8000002 0.60000002
6.0500002 6.8000002 0.69999999
6.0500002 6.8000002 0.80000001
6.0500002 6.8000002 0.89999998
6.0500002 6.8000002 1
6.0500002 6.8000002 1.1
6.0500002 6.8000002 1.2
6.0500002 6.8000002 1.3
6.0500002 6.8000002 1.4
6.0500002 6.8000002 1.5
6.0500002 6.8000002 1.6
6.0500002 6.8000002 1.7
6.0500002 6.8000002 1.8
6.0500002 6.8000002 1.9
6.0500002 6.8000002 2
6.0500002 6.8000002 2.0999999
6.0500002 6.8000002 2.2
6.0500002 6.8000002 2.3
6.0500002 6.8000002 2.4000001
6.0500002 6.8000002 2.5
6.0500002 6.8000002 2.5999999
6.0500002 6.8000002 2.7
6.0500002 6.8000002 2.8
6.0500002 6.8000002 2.9000001
6.0500002 6.8000002 3
