# .PCD v0.7 - Point Cloud Data file format
VERSION 0.7
FIELDS x y z
SIZE 4 4 4
TYPE F F F
COUNT 1 1 1
WIDTH 2192
HEIGHT 1
VIEWPOINT 0 0 0 1 0 0 0
POINTS 2192
DATA ascii
2.05 0.1 4.3000002
2.05 0.1 4.4000001
2.05 0.1 4.5
2.05 0.1 4.5999999
2.05 0.1 4.6999998
2.05 0.1 4.8000002
2.05 0.1 4.9000001
2.05 0.1 5
2.05 0.1 5.0999999
2.05 0.1 5.1999998
2.05 0.1 5.3000002
2.05 0.1 5.4000001
2.05 0.1 5.5
1.95 0.1 -0.5
1.95 0.1 -0.40000001
1.95 0.1 -0.30000001
1.95 0.1 -0.2
1.95 0.1 -0.1
1.95 0.1 -2.7755576e-17
1.95 0.1 0.1
1.95 0.1 0.2
1.95 0.1 0.30000001
1.95 0.1 0.40000001
1.95 0.1 0.5
1.95 0.1 0.60000002
1.95 0.1 0.69999999
1.95 0.1 0.80000001
1.95 0.1 0.89999998
1.95 0.1 1
1.95 0.1 1.1
1.95 0.1 1.2
1.95 0.1 1.3
1.95 0.1 1.4
1.95 0.1 1.5
1.95 0.1 1.6
1.95 0.1 1.7
1.95 0.1 1.8
1.95 0.1 1.9
1.95 0.1 2
1.95 0.1 2.0999999
1.95 0.1 2.2
1.95 0.1 2.3
1.95 0.1 2.4000001
1.95 0.1 2.5
1.95 0.1 2.5999999
1.95 0.1 2.7
1.95 0.1 2.8
1.95 0.1 2.9000001
1.95 0.1 3
1.95 0.1 3.0999999
1.95 0.1 3.2
1.95 0.1 3.3
1.95 0.1 3.4000001
1.95 0.1 3.5
1.95 0.1 3.5999999
1.95 0.1 3.7
1.95 0.1 3.8
1.95 0.1 3.9000001
1.95 0.1 4
1.95 0.1 4.0999999
1.95 0.1 4.1999998
1.95 0.1 4.3000002
1.95 0.1 4.4000001
1.95 0.1 4.5
1.95 0.1 4.5999999
1.95 0.1 4.6999998
1.95 0.1 4.8000002
1.95 0.1 4.9000001
1.95 0.1 5
1.95 0.1 5.0999999
1.95 0.1 5.1999998
1.95 0.1 5.3000002
1.95 0.1 5.4000001
1.95 0.1 5.5
1.85 0.1 -0.5
1.85 0.1 -0.40000001
1.85 0.1 -0.30000001
1.85 0.1 -0.2
1.85 0.1 -0.1
1.85 0.1 -2.7755576e-17
1.85 0.1 0.1
1.85 0.1 0.2
1.85 0.1 0.30000001
1.85 0.1 0.40000001
1.85 0.1 0.5
1.85 0.1 0.60000002
1.85 0.1 0.69999999
1.85 0.1 0.80000001
1.85 0.1 0.89999998
1.85 0.1 1
1.85 0.1 1.1
1.85 0.1 1.2
1.85 0.1 1.3
1.85 0.1 1.4
1.85 0.1 1.5
1.85 0.1 1.6
1.85 0.1 1.7
1.85 0.1 1.8
1.85 0.1 1.9
1.85 0.1 2
1.85 0.1 2.0999999
1.85 0.1 2.2
1.85 0.1 2.3
1.85 0.1 2.4000001
1.85 0.1 2.5
1.85 0.1 2.5999999
1.85 0.1 2.7
1.85 0.1 2.8
1.85 0.1 2.9000001
1.85 0.1 3
1.85 0.1 3.0999999
1.85 0.1 3.2
1.85 0.1 3.3
1.85 0.1 3.4000001
1.85 0.1 3.5
1.85 0.1 3.5999999
1.85 0.1 3.7
1.85 0.1 3.8
1.85 0.1 3.9000001
1.85 0.1 4
1.85 0.1 4.0999999
1.85 0.1 4.1999998
1.85 0.1 4.3000002
1.85 0.1 4.4000001
1.85 0.1 4.5
1.85 0.1 4.5999999
1.85 0.1 4.6999998
1.85 0.1 4.8000002
1.85 0.1 4.9000001
1.85 0.1 5
1.85 0.1 5.0999999
1.85 0.1 5.1999998
1.85 0.1 5.3000002
1.85 0.1 5.4000001
1.85 0.1 5.5
2.1500001 0.2 -0.5
2.1500001 0.2 -0.40000001
2.1500001 0.2 -0.30000001
2.1500001 0.2 -0.2
2.1500001 0.2 -0.1
2.1500001 0.2 -2.7755576e-17
2.1500001 0.2 0.1
2.1500001 0.2 0.2
2.1500001 0.2 0.30000001
2.1500001 0.2 0.40000001
2.1500001 0.2 0.5
2.1500001 0.2 0.60000002
2.1500001 0.2 0.69999999
2.1500001 0.2 0.80000001
2.1500001 0.2 0.89999998
2.1500001 0.2 1
2.1500001 0.2 1.1
2.1500001 0.2 1.2
2.1500001 0.2 1.3
2.1500001 0.2 1.4
2.1500001 0.2 1.5
2.1500001 0.2 1.6
2.1500001 0.2 1.7
2.1500001 0.2 1.8
2.1500001 0.2 1.9
2.1500001 0.2 2
2.1500001 0.2 2.0999999
2.1500001 0.2 2.2
2.1500001 0.2 2.3
2.1500001 0.2 2.4000001
2.1500001 0.2 2.5
2.1500001 0.2 2.5999999
2.1500001 0.2 2.7
2.1500001 0.2 2.8
2.1500001 0.2 2.9000001
2.1500001 0.2 3
2.1500001 0.2 3.0999999
2.1500001 0.2 3.2
2.1500001 0.2 3.3
2.1500001 0.2 3.4000001
2.1500001 0.2 3.5
2.1500001 0.2 3.5999999
2.1500001 0.2 3.7
2.1500001 0.2 3.8
2.1500001 0.2 3.9000001
2.1500001 0.2 4
2.1500001 0.2 4.0999999
2.1500001 0.2 4.1999998
2.1500001 0.2 4.3000002
2.1500001 0.2 4.4000001
2.1500001 0.2 4.5
2.1500001 0.2 4.5999999
2.1500001 0.2 4.6999998
2.1500001 0.2 4.8000002
2.1500001 0.2 4.9000001
2.1500001 0.2 5
2.1500001 0.2 5.0999999
2.1500001 0.2 5.1999998
2.1500001 0.2 5.3000002
2.1500001 0.2 5.4000001
2.1500001 0.2 5.5
2.05 0.2 -0.5
2.05 0.2 -0.40000001
2.05 0.2 -0.30000001
2.05 0.2 -0.2
2.05 0.2 -0.1
2.05 0.2 -2.7755576e-17
2.05 0.2 0.1
2.05 0.2 0.2
2.05 0.2 0.30000001
2.05 0.2 0.40000001
2.05 0.2 0.5
2.05 0.2 0.60000002
2.05 0.2 0.69999999
2.05 0.2 0.80000001
2.05 0.2 0.89999998
2.05 0.2 1
2.05 0.2 1.1
2.05 0.2 1.2
2.05 0.2 1.3
2.05 0.2 1.4
2.05 0.2 1.5
2.05 0.2 1.6
2.05 0.2 1.7
2.05 0.2 1.8
2.05 0.2 1.9
2.05 0.2 2
2.05 0.2 2.0999999
2.05 0.2 2.2
2.05 0.2 2.3
2.05 0.2 2.4000001
2.05 0.2 2.5
2.05 0.2 2.5999999
2.05 0.2 2.7
2.05 0.2 2.8
2.05 0.2 2.9000001
2.05 0.2 3
2.05 0.2 3.0999999
2.05 0.2 3.2
2.05 0.2 3.3
2.05 0.2 3.4000001
2.05 0.2 3.5
2.05 0.2 3.5999999
2.05 0.2 3.7
2.05 0.2 3.8
2.05 0.2 3.9000001
2.05 0.2 4
2.05 0.2 4.0999999
2.05 0.2 4.1999998
2.05 0.2 4.3000002
2.05 0.2 4.4000001
2.05 0.2 4.5
2.05 0.2 4.5999999
2.05 0.2 4.6999998
2.05 0.2 4.8000002
2.05 0.2 4.9000001
2.05 0.2 5
2.05 0.2 5.0999999
2.05 0.2 5.1999998
2.05 0.2 5.3000002
2.05 0.2 5.4000001
2.05 0.2 5.5
1.95 0.2 -0.5
1.95 0.2 -0.40000001
1.95 0.2 -0.30000001
1.95 0.2 -0.2
1.95 0.2 -0.1
1.95 0.2 -2.7755576e-17
1.95 0.2 0.1
1.95 0.2 0.2
1.95 0.2 0.30000001
1.95 0.2 0.40000001
1.95 0.2 0.5
1.95 0.2 0.60000002
1.95 0.2 0.69999999
1.95 0.2 0.80000001
1.95 0.2 0.89999998
1.95 0.2 1
1.95 0.2 1.1
1.95 0.2 1.2
1.95 0.2 1.3
1.95 0.2 1.4
1.95 0.2 1.5
1.95 0.2 1.6
1.95 0.2 1.7
1.95 0.2 1.8
1.95 0.2 1.9
1.95 0.2 2
1.95 0.2 2.0999999
1.95 0.2 2.2
1.95 0.2 2.3
1.95 0.2 2.4000001
1.95 0.2 2.5
1.95 0.2 2.5999999
1.95 0.2 2.7
1.95 0.2 2.8
1.95 0.2 2.9000001
1.95 0.2 3
1.95 0.2 3.0999999
1.95 0.2 3.2
1.95 0.2 3.3
1.95 0.2 3.4000001
1.95 0.2 3.5
1.95 0.2 3.5999999
1.95 0.2 3.7
1.95 0.2 3.8
1.95 0.2 3.9000001
1.95 0.2 4
1.95 0.2 4.0999999
1.95 0.2 4.1999998
1.95 0.2 4.3000002
1.95 0.2 4.4000001
1.95 0.2 4.5
1.95 0.2 4.5999999
1.95 0.2 4.6999998
1.95 0.2 4.8000002
1.95 0.2 4.9000001
1.95 0.2 5
1.95 0.2 5.0999999
1.95 0.2 5.1999998
1.95 0.2 5.3000002
1.95 0.2 5.4000001
1.95 0.2 5.5
1.85 0.2 -0.5
1.85 0.2 -0.40000001
1.85 0.2 -0.30000001
1.85 0.2 -0.2
1.85 0.2 -0.1
1.85 0.2 -2.7755576e-17
1.85 0.2 0.1
1.85 0.2 0.2
1.85 0.2 0.30000001
1.85 0.2 0.40000001
1.85 0.2 0.5
1.85 0.2 0.60000002
1.85 0.2 0.69999999
1.85 0.2 0.80000001
1.85 0.2 0.89999998
1.85 0.2 1
1.85 0.2 1.1
1.85 0.2 1.2
1.85 0.2 1.3
1.85 0.2 1.4
1.85 0.2 1.5
1.85 0.2 1.6
1.85 0.2 1.7
1.85 0.2 1.8
1.85 0.2 1.9
1.85 0.2 2
1.85 0.2 2.0999999
1.85 0.2 2.2
1.85 0.2 2.3
1.85 0.2 2.4000001
1.85 0.2 2.5
1.85 0.2 2.5999999
1.85 0.2 2.7
1.85 0.2 2.8
1.85 0.2 2.9000001
1.85 0.2 3
1.85 0.2 3.0999999
1.85 0.2 3.2
1.85 0.2 3.3
1.85 0.2 3.4000001
1.85 0.2 3.5
1.85 0.2 3.5999999
1.85 0.2 3.7
1.85 0.2 3.8
1.85 0.2 3.9000001
1.85 0.2 4
1.85 0.2 4.0999999
1.85 0.2 4.1999998
1.85 0.2 4.3000002
1.85 0.2 4.4000001
1.85 0.2 4.5
1.85 0.2 4.5999999
1.85 0.2 4.6999998
1.85 0.2 4.8000002
1.85 0.2 4.9000001
1.85 0.2 5
1.85 0.2 5.0999999
1.85 0.2 5.1999998
1.85 0.2 5.3000002
1.85 0.2 5.4000001
1.85 0.2 5.5
2.1500001 0.30000001 -0.5
2.1500001 0.30000001 -0.40000001
2.1500001 0.30000001 -0.30000001
2.1500001 0.30000001 -0.2
2.1500001 0.30000001 -0.1
2.1500001 0.30000001 -2.7755576e-17
2.1500001 0.30000001 0.1
2.1500001 0.30000001 0.2
2.1500001 0.30000001 0.30000001
2.1500001 0.30000001 0.40000001
2.1500001 0.30000001 0.5
2.1500001 0.30000001 0.60000002
2.1500001 0.30000001 0.69999999
2.1500001 0.30000001 0.80000001
2.1500001 0.30000001 0.89999998
2.1500001 0.30000001 1
2.1500001 0.30000001 1.1
2.1500001 0.30000001 1.2
2.1500001 0.30000001 1.3
2.1500001 0.30000001 1.4
2.1500001 0.30000001 1.5
2.1500001 0.30000001 1.6
2.1500001 0.30000001 1.7
2.1500001 0.30000001 1.8
2.1500001 0.30000001 1.9
2.1500001 0.30000001 2
2.1500001 0.30000001 2.0999999
2.1500001 0.30000001 2.2
2.1500001 0.30000001 2.3
2.1500001 0.30000001 2.4000001
2.1500001 0.30000001 2.5
2.1500001 0.30000001 2.5999999
2.1500001 0.30000001 2.7
2.1500001 0.30000001 2.8
2.1500001 0.30000001 2.9000001
2.1500001 0.30000001 3
2.1500001 0.30000001 3.0999999
2.1500001 0.30000001 3.2
2.1500001 0.30000001 3.3
2.1500001 0.30000001 3.4000001
2.1500001 0.30000001 3.5
2.1500001 0.30000001 3.5999999
2.1500001 0.30000001 3.7
2.1500001 0.30000001 3.8
2.1500001 0.30000001 3.9000001
2.1500001 0.30000001 4
2.1500001 0.30000001 4.0999999
2.1500001 0.30000001 4.1999998
2.1500001 0.30000001 4.3000002
2.1500001 0.30000001 4.4000001
2.1500001 0.30000001 4.5
2.1500001 0.30000001 4.5999999
2.1500001 0.30000001 4.6999998
2.1500001 0.30000001 4.8000002
2.1500001 0.30000001 4.9000001
2.1500001 0.30000001 5
2.1500001 0.30000001 5.0999999
2.1500001 0.30000001 5.1999998
2.1500001 0.30000001 5.3000002
2.1500001 0.30000001 5.4000001
2.1500001 0.30000001 5.5
2.05 0.30000001 -0.5
2.05 0.30000001 -0.40000001
2.05 0.30000001 -0.30000001
2.05 0.30000001 -0.2
2.05 0.30000001 -0.1
2.05 0.30000001 -2.7755576e-17
2.05 0.30000001 0.1
2.05 0.30000001 0.2
2.05 0.30000001 0.30000001
2.05 0.30000001 0.40000001
2.05 0.30000001 0.5
2.05 0.30000001 0.60000002
2.05 0.30000001 0.69999999
2.05 0.30000001 0.80000001
2.05 0.30000001 0.89999998
2.05 0.30000001 1
2.05 0.30000001 1.1
2.05 0.30000001 1.2
2.05 0.30000001 1.3
2.05 0.30000001 1.4
2.05 0.30000001 1.5
2.05 0.30000001 1.6
2.05 0.30000001 1.7
2.05 0.30000001 1.8
2.05 0.30000001 1.9
2.05 0.30000001 2
2.05 0.30000001 2.0999999
2.05 0.30000001 2.2
2.05 0.30000001 2.3
2.05 0.30000001 2.4000001
2.05 0.30000001 2.5
2.05 0.30000001 2.5999999
2.05 0.30000001 2.7
2.05 0.30000001 2.8
2.05 0.30000001 2.9000001
2.05 0.30000001 3
2.05 0.30000001 3.0999999
2.05 0.30000001 3.2
2.05 0.30000001 3.3
2.05 0.30000001 3.4000001
2.05 0.30000001 3.5
2.05 0.30000001 3.5999999
2.05 0.30000001 3.7
2.05 0.30000001 3.8
2.05 0.30000001 3.9000001
2.05 0.30000001 4
2.05 0.30000001 4.0999999
2.05 0.30000001 4.1999998
2.05 0.30000001 4.3000002
2.05 0.30000001 4.4000001
2.05 0.30000001 4.5
2.05 0.30000001 4.5999999
2.05 0.30000001 4.6999998
2.05 0.30000001 4.8000002
2.05 0.30000001 4.9000001
2.05 0.30000001 5
2.05 0.30000001 5.0999999
2.05 0.30000001 5.1999998
2.05 0.30000001 5.3000002
2.05 0.30000001 5.4000001
2.05 0.30000001 5.5
1.95 0.30000001 -0.5
1.95 0.30000001 -0.40000001
1.95 0.30000001 -0.30000001
1.95 0.30000001 -0.2
1.95 0.30000001 -0.1
1.95 0.30000001 -2.7755576e-17
1.95 0.30000001 0.1
1.95 0.30000001 0.2
1.95 0.30000001 0.30000001
1.95 0.30000001 0.40000001
1.95 0.30000001 0.5
1.95 0.30000001 0.60000002
1.95 0.30000001 0.69999999
1.95 0.30000001 0.80000001
1.95 0.30000001 0.89999998
1.95 0.30000001 1
1.95 0.30000001 1.1
1.95 0.30000001 1.2
1.95 0.30000001 1.3
1.95 0.30000001 1.4
1.95 0.30000001 1.5
1.95 0.30000001 1.6
1.95 0.30000001 1.7
1.95 0.30000001 1.8
1.95 0.30000001 1.9
1.95 0.30000001 2
1.95 0.30000001 2.0999999
1.95 0.30000001 2.2
1.95 0.30000001 2.3
1.95 0.30000001 2.4000001
1.95 0.30000001 2.5
1.95 0.30000001 2.5999999
1.95 0.30000001 2.7
1.95 0.30000001 2.8
1.95 0.30000001 2.9000001
1.95 0.30000001 3
1.95 0.30000001 3.0999999
1.95 0.30000001 3.2
1.95 0.30000001 3.3
1.95 0.30000001 3.4000001
1.95 0.30000001 3.5
1.95 0.30000001 3.5999999
1.95 0.30000001 3.7
1.95 0.30000001 3.8
1.95 0.30000001 3.9000001
1.95 0.30000001 4
1.95 0.30000001 4.0999999
1.95 0.30000001 4.1999998
1.95 0.30000001 4.3000002
1.95 0.30000001 4.4000001
1.95 0.30000001 4.5
1.95 0.30000001 4.5999999
1.95 0.30000001 4.6999998
1.95 0.30000001 4.8000002
1.95 0.30000001 4.9000001
1.95 0.30000001 5
1.95 0.30000001 5.0999999
1.95 0.30000001 5.1999998
1.95 0.30000001 5.3000002
1.95 0.30000001 5.4000001
1.95 0.30000001 5.5
1.85 0.30000001 -0.5
1.85 0.30000001 -0.40000001
1.85 0.30000001 -0.30000001
1.85 0.30000001 -0.2
1.85 0.30000001 -0.1
1.85 0.30000001 -2.7755576e-17
1.85 0.30000001 0.1
1.85 0.30000001 0.2
1.85 0.30000001 0.30000001
1.85 0.30000001 0.40000001
1.85 0.30000001 0.5
1.85 0.30000001 0.60000002
1.85 0.30000001 0.69999999
1.85 0.30000001 0.80000001
1.85 0.30000001 0.89999998
1.85 0.30000001 1
1.85 0.30000001 1.1
1.85 0.30000001 1.2
1.85 0.30000001 1.3
1.85 0.30000001 1.4
1.85 0.30000001 1.5
1.85 0.30000001 1.6
1.85 0.30000001 1.7
1.85 0.30000001 1.8
1.85 0.30000001 1.9
1.85 0.30000001 2
1.85 0.30000001 2.0999999
1.85 0.30000001 2.2
1.85 0.30000001 2.3
1.85 0.30000001 2.4000001
1.85 0.30000001 2.5
1.85 0.30000001 2.5999999
1.85 0.30000001 2.7
1.85 0.30000001 2.8
1.85 0.30000001 2.9000001
1.85 0.30000001 3
1.85 0.30000001 3.0999999
1.85 0.30000001 3.2
1.85 0.30000001 3.3
1.85 0.30000001 3.4000001
1.85 0.30000001 3.5
1.85 0.30000001 3.5999999
1.85 0.30000001 3.7
1.85 0.30000001 3.8
1.85 0.30000001 3.9000001
1.85 0.30000001 4
1.85 0.30000001 4.0999999
1.85 0.30000001 4.1999998
1.85 0.30000001 4.3000002
1.85 0.30000001 4.4000001
1.85 0.30000001 4.5
1.85 0.30000001 4.5999999
1.85 0.30000001 4.6999998
1.85 0.30000001 4.8000002
1.85 0.30000001 4.9000001
1.85 0.30000001 5
1.85 0.30000001 5.0999999
1.85 0.30000001 5.1999998
1.85 0.30000001 5.3000002
1.85 0.30000001 5.4000001
1.85 0.30000001 5.5
2.1500001 0.40000001 -0.5
2.1500001 0.40000001 -0.40000001
2.1500001 0.40000001 -0.30000001
2.1500001 0.40000001 -0.2
2.1500001 0.40000001 -0.1
2.1500001 0.40000001 -2.7755576e-17
2.1500001 0.40000001 0.1
2.1500001 0.40000001 0.2
2.1500001 0.40000001 0.30000001
2.1500001 0.40000001 0.40000001
2.1500001 0.40000001 0.5
2.1500001 0.40000001 0.60000002
2.1500001 0.40000001 0.69999999
2.1500001 0.40000001 0.80000001
2.1500001 0.40000001 0.89999998
2.1500001 0.40000001 1
2.1500001 0.40000001 1.1
2.1500001 0.40000001 1.2
2.1500001 0.40000001 1.3
2.1500001 0.40000001 1.4
2.1500001 0.40000001 1.5
2.1500001 0.40000001 1.6
2.1500001 0.40000001 1.7
2.1500001 0.40000001 1.8
2.1500001 0.40000001 1.9
2.1500001 0.40000001 2
2.1500001 0.40000001 2.0999999
2.1500001 0.40000001 2.2
2.1500001 0.40000001 2.3
2.1500001 0.40000001 2.4000001
2.1500001 0.40000001 2.5
2.1500001 0.40000001 2.5999999
2.1500001 0.40000001 2.7
2.1500001 0.40000001 2.8
2.1500001 0.40000001 2.9000001
2.1500001 0.40000001 3
2.1500001 0.40000001 3.0999999
2.1500001 0.40000001 3.2
2.1500001 0.40000001 3.3
2.1500001 0.40000001 3.4000001
2.1500001 0.40000001 3.5
2.1500001 0.40000001 3.5999999
2.1500001 0.40000001 3.7
2.1500001 0.40000001 3.8
2.1500001 0.40000001 3.9000001
2.1500001 0.40000001 4
2.1500001 0.40000001 4.0999999
2.1500001 0.40000001 4.1999998
2.1500001 0.40000001 4.3000002
2.1500001 0.40000001 4.4000001
2.1500001 0.40000001 4.5
2.1500001 0.40000001 4.5999999
2.1500001 0.40000001 4.6999998
2.1500001 0.40000001 4.8000002
2.1500001 0.40000001 4.9000001
2.1500001 0.40000001 5
2.1500001 0.40000001 5.0999999
2.1500001 0.40000001 5.1999998
2.1500001 0.40000001 5.3000002
2.1500001 0.40000001 5.4000001
2.1500001 0.40000001 5.5
2.05 0.40000001 -0.5
2.05 0.40000001 -0.40000001
2.05 0.40000001 -0.30000001
2.05 0.40000001 -0.2
2.05 0.40000001 -0.1
2.05 0.40000001 -2.7755576e-17
2.05 0.40000001 0.1
2.05 0.40000001 0.2
2.05 0.40000001 0.30000001
2.05 0.40000001 0.40000001
2.05 0.40000001 0.5
2.05 0.40000001 0.60000002
2.05 0.40000001 0.69999999
2.05 0.40000001 0.80000001
2.05 0.40000001 0.89999998
2.05 0.40000001 1
2.05 0.40000001 1.1
2.05 0.40000001 1.2
2.05 0.40000001 1.3
2.05 0.40000001 1.4
2.05 0.40000001 1.5
2.05 0.40000001 1.6
2.05 0.40000001 1.7
2.05 0.40000001 1.8
2.05 0.40000001 1.9
2.05 0.40000001 2
2.05 0.40000001 2.0999999
2.05 0.40000001 2.2
2.05 0.40000001 2.3
2.05 0.40000001 2.4000001
2.05 0.40000001 2.5
2.05 0.40000001 2.5999999
2.05 0.40000001 2.7
2.05 0.40000001 2.8
2.05 0.40000001 2.9000001
2.05 0.40000001 3
2.05 0.40000001 3.0999999
2.05 0.40000001 3.2
2.05 0.40000001 3.3
2.05 0.40000001 3.4000001
2.05 0.40000001 3.5
2.05 0.40000001 3.5999999
2.05 0.40000001 3.7
2.05 0.40000001 3.8
2.05 0.40000001 3.9000001
2.05 0.40000001 4
2.05 0.40000001 4.0999999
2.05 0.40000001 4.1999998
2.05 0.40000001 4.3000002
2.05 0.40000001 4.4000001
2.05 0.40000001 4.5
2.05 0.40000001 4.5999999
2.05 0.40000001 4.6999998
2.05 0.40000001 4.8000002
2.05 0.40000001 4.9000001
2.05 0.40000001 5
2.05 0.40000001 5.0999999
2.05 0.40000001 5.1999998
2.05 0.40000001 5.3000002
2.05 0.40000001 5.4000001
2.05 0.40000001 5.5
1.95 0.40000001 -0.5
1.95 0.40000001 -0.40000001
1.95 0.40000001 -0.30000001
1.95 0.40000001 -0.2
1.95 0.40000001 -0.1
1.95 0.40000001 -2.7755576e-17
1.95 0.40000001 0.1
1.95 0.40000001 0.2
1.95 0.40000001 0.30000001
1.95 0.40000001 0.40000001
1.95 0.40000001 0.5
1.95 0.40000001 0.60000002
1.95 0.40000001 0.69999999
1.95 0.40000001 0.80000001
1.95 0.40000001 0.89999998
1.95 0.40000001 1
1.95 0.40000001 1.1
1.95 0.40000001 1.2
1.95 0.40000001 1.3
1.95 0.40000001 1.4
1.95 0.40000001 1.5
1.95 0.40000001 1.6
1.95 0.40000001 1.7
1.95 0.40000001 1.8
1.95 0.40000001 1.9
1.95 0.40000001 2
1.95 0.40000001 2.0999999
1.95 0.40000001 2.2
1.95 0.40000001 2.3
1.95 0.40000001 2.4000001
1.95 0.40000001 2.5
1.95 0.40000001 2.5999999
1.95 0.40000001 2.7
1.95 0.40000001 2.8
1.95 0.40000001 2.9000001
1.95 0.40000001 3
1.95 0.40000001 3.0999999
1.95 0.40000001 3.2
1.95 0.40000001 3.3
1.95 0.40000001 3.4000001
1.95 0.40000001 3.5
1.95 0.40000001 3.5999999
1.95 0.40000001 3.7
1.95 0.40000001 3.8
1.95 0.40000001 3.9000001
1.95 0.40000001 4
1.95 0.40000001 4.0999999
1.95 0.40000001 4.1999998
1.95 0.40000001 4.3000002
1.95 0.40000001 4.4000001
1.95 0.40000001 4.5
1.95 0.40000001 4.5999999
1.95 0.40000001 4.6999998
1.95 0.40000001 4.8000002
1.95 0.40000001 4.9000001
1.95 0.40000001 5
1.95 0.40000001 5.0999999
1.95 0.40000001 5.1999998
1.95 0.40000001 5.3000002
1.95 0.40000001 5.4000001
1.95 0.40000001 5.5
1.85 0.40000001 -0.5
1.85 0.40000001 -0.40000001
1.85 0.40000001 -0.30000001
1.85 0.40000001 -0.2
1.85 0.40000001 -0.1
1.85 0.40000001 -2.7755576e-17
1.85 0.40000001 0.1
1.85 0.40000001 0.2
1.85 0.40000001 0.30000001
1.85 0.40000001 0.40000001
1.85 0.40000001 0.5
1.85 0.40000001 0.60000002
1.85 0.40000001 0.69999999
1.85 0.40000001 0.80000001
1.85 0.40000001 0.89999998
1.85 0.40000001 1
1.85 0.40000001 1.1
1.85 0.40000001 1.2
1.85 0.40000001 1.3
1.85 0.40000001 1.4
1.85 0.40000001 1.5
1.85 0.40000001 1.6
1.85 0.40000001 1.7
1.85 0.40000001 1.8
1.85 0.40000001 1.9
1.85 0.40000001 2
1.85 0.40000001 2.0999999
1.85 0.40000001 2.2
1.85 0.40000001 2.3
1.85 0.40000001 2.4000001
1.85 0.40000001 2.5
1.85 0.40000001 2.5999999
1.85 0.40000001 2.7
1.85 0.40000001 2.8
1.85 0.40000001 2.9000001
1.85 0.40000001 3
1.85 0.40000001 3.0999999
1.85 0.40000001 3.2
1.85 0.40000001 3.3
1.85 0.40000001 3.4000001
1.85 0.40000001 3.5
1.85 0.40000001 3.5999999
1.85 0.40000001 3.7
1.85 0.40000001 3.8
1.85 0.40000001 3.9000001
1.85 0.40000001 4
1.85 0.40000001 4.0999999
1.85 0.40000001 4.1999998
1.85 0.40000001 4.3000002
1.85 0.40000001 4.4000001
1.85 0.40000001 4.5
1.85 0.40000001 4.5999999
1.85 0.40000001 4.6999998
1.85 0.40000001 4.8000002
1.85 0.40000001 4.9000001
1.85 0.40000001 5
1.85 0.40000001 5.0999999
1.85 0.40000001 5.1999998
1.85 0.40000001 5.3000002
1.85 0.40000001 5.4000001
1.85 0.40000001 5.5
2.1500001 0.5 -0.5
2.1500001 0.5 -0.40000001
2.1500001 0.5 -0.30000001
2.1500001 0.5 -0.2
2.1500001 0.5 -0.1
2.1500001 0.5 -2.7755576e-17
2.1500001 0.5 0.1
2.1500001 0.5 0.2
2.1500001 0.5 0.30000001
2.1500001 0.5 0.40000001
2.1500001 0.5 0.5
2.1500001 0.5 0.60000002
2.1500001 0.5 0.69999999
2.1500001 0.5 0.80000001
2.1500001 0.5 0.89999998
2.1500001 0.5 1
2.1500001 0.5 1.1
2.1500001 0.5 1.2
2.1500001 0.5 1.3
2.1500001 0.5 1.4
2.1500001 0.5 1.5
2.1500001 0.5 1.6
2.1500001 0.5 1.7
2.1500001 0.5 1.8
2.1500001 0.5 1.9
2.1500001 0.5 2
2.1500001 0.5 2.0999999
2.1500001 0.5 2.2
2.1500001 0.5 2.3
2.1500001 0.5 2.4000001
2.1500001 0.5 2.5
2.1500001 0.5 2.5999999
2.1500001 0.5 2.7
2.1500001 0.5 2.8
2.1500001 0.5 2.9000001
2.1500001 0.5 3
2.1500001 0.5 3.0999999
2.1500001 0.5 3.2
2.1500001 0.5 3.3
2.1500001 0.5 3.4000001
2.1500001 0.5 3.5
2.1500001 0.5 3.5999999
2.1500001 0.5 3.7
2.1500001 0.5 3.8
2.1500001 0.5 3.9000001
2.1500001 0.5 4
2.1500001 0.5 4.0999999
2.1500001 0.5 4.1999998
2.1500001 0.5 4.3000002
2.1500001 0.5 4.4000001
2.1500001 0.5 4.5
2.1500001 0.5 4.5999999
2.1500001 0.5 4.6999998
2.1500001 0.5 4.8000002
2.1500001 0.5 4.9000001
2.1500001 0.5 5
2.1500001 0.5 5.0999999
2.1500001 0.5 5.1999998
2.1500001 0.5 5.3000002
2.1500001 0.5 5.4000001
2.1500001 0.5 5.5
2.05 0.5 -0.5
2.05 0.5 -0.40000001
2.05 0.5 -0.30000001
2.05 0.5 -0.2
2.05 0.5 -0.1
2.05 0.5 -2.7755576e-17
2.05 0.5 0.1
2.05 0.5 0.2
2.05 0.5 0.30000001
2.05 0.5 0.40000001
2.05 0.5 0.5
2.05 0.5 0.60000002
2.05 0.5 0.69999999
2.05 0.5 0.80000001
2.05 0.5 0.89999998
2.05 0.5 1
2.05 0.5 1.1
2.05 0.5 1.2
2.05 0.5 1.3
2.05 0.5 1.4
2.05 0.5 1.5
2.05 0.5 1.6
2.05 0.5 1.7
2.05 0.5 1.8
2.05 0.5 1.9
2.05 0.5 2
2.05 0.5 2.0999999
2.05 0.5 2.2
2.05 0.5 2.3
2.05 0.5 2.4000001
2.05 0.5 2.5
2.05 0.5 2.5999999
2.05 0.5 2.7
2.05 0.5 2.8
2.05 0.5 2.9000001
2.05 0.5 3
2.05 0.5 3.0999999
2.05 0.5 3.2
2.05 0.5 3.3
2.05 0.5 3.4000001
2.05 0.5 3.5
2.05 0.5 3.5999999
2.05 0.5 3.7
2.05 0.5 3.8
2.05 0.5 3.9000001
2.05 0.5 4
2.05 0.5 4.0999999
2.05 0.5 4.1999998
2.05 0.5 4.3000002
2.05 0.5 4.4000001
2.05 0.5 4.5
2.05 0.5 4.5999999
2.05 0.5 4.6999998
2.05 0.5 4.8000002
2.05 0.5 4.9000001
2.05 0.5 5
2.05 0.5 5.0999999
2.05 0.5 5.1999998
2.05 0.5 5.3000002
2.05 0.5 5.4000001
2.05 0.5 5.5
1.95 0.5 -0.5
1.95 0.5 -0.40000001
1.95 0.5 -0.30000001
1.95 0.5 -0.2
1.95 0.5 -0.1
1.95 0.5 -2.7755576e-17
1.95 0.5 0.1
1.95 0.5 0.2
1.95 0.5 0.30000001
1.95 0.5 0.40000001
1.95 0.5 0.5
1.95 0.5 0.60000002
1.95 0.5 0.69999999
1.95 0.5 0.80000001
1.95 0.5 0.89999998
1.95 0.5 1
1.95 0.5 1.1
1.95 0.5 1.2
1.95 0.5 1.3
1.95 0.5 1.4
1.95 0.5 1.5
1.95 0.5 1.6
1.95 0.5 1.7
1.95 0.5 1.8
1.95 0.5 1.9
1.95 0.5 2
1.95 0.5 2.0999999
1.95 0.5 2.2
1.95 0.5 2.3
1.95 0.5 2.4000001
1.95 0.5 2.5
1.95 0.5 2.5999999
1.95 0.5 2.7
1.95 0.5 2.8
1.95 0.5 2.9000001
1.95 0.5 3
1.95 0.5 3.0999999
1.95 0.5 3.2
1.95 0.5 3.3
1.95 0.5 3.4000001
1.95 0.5 3.5
1.95 0.5 3.5999999
1.95 0.5 3.7
1.95 0.5 3.8
1.95 0.5 3.9000001
1.95 0.5 4
1.95 0.5 4.0999999
1.95 0.5 4.1999998
1.95 0.5 4.3000002
1.95 0.5 4.4000001
1.95 0.5 4.5
1.95 0.5 4.5999999
1.95 0.5 4.6999998
1.95 0.5 4.8000002
1.95 0.5 4.9000001
1.95 0.5 5
1.95 0.5 5.0999999
1.95 0.5 5.1999998
1.95 0.5 5.3000002
1.95 0.5 5.4000001
1.95 0.5 5.5
1.85 0.5 -0.5
1.85 0.5 -0.40000001
1.85 0.5 -0.30000001
1.85 0.5 -0.2
1.85 0.5 -0.1
1.85 0.5 -2.7755576e-17
1.85 0.5 0.1
1.85 0.5 0.2
1.85 0.5 0.30000001
1.85 0.5 0.40000001
1.85 0.5 0.5
1.85 0.5 0.60000002
1.85 0.5 0.69999999
1.85 0.5 0.80000001
1.85 0.5 0.89999998
1.85 0.5 1
1.85 0.5 1.1
1.85 0.5 1.2
1.85 0.5 1.3
1.85 0.5 1.4
1.85 0.5 1.5
1.85 0.5 1.6
1.85 0.5 1.7
1.85 0.5 1.8
1.85 0.5 1.9
1.85 0.5 2
1.85 0.5 2.0999999
1.85 0.5 2.2
1.85 0.5 2.3
1.85 0.5 2.4000001
1.85 0.5 2.5
1.85 0.5 2.5999999
1.85 0.5 2.7
1.85 0.5 2.8
1.85 0.5 2.9000001
1.85 0.5 3
1.85 0.5 3.0999999
1.85 0.5 3.2
1.85 0.5 3.3
1.85 0.5 3.4000001
1.85 0.5 3.5
1.85 0.5 3.5999999
1.85 0.5 3.7
1.85 0.5 3.8
1.85 0.5 3.9000001
1.85 0.5 4
1.85 0.5 4.0999999
1.85 0.5 4.1999998
1.85 0.5 4.3000002
1.85 0.5 4.4000001
1.85 0.5 4.5
1.85 0.5 4.5999999
1.85 0.5 4.6999998
1.85 0.5 4.8000002
1.85 0.5 4.9000001
1.85 0.5 5
1.85 0.5 5.0999999
1.85 0.5 5.1999998
1.85 0.5 5.3000002
1.85 0.5 5.4000001
1.85 0.5 5.5
2.1500001 0.60000002 -0.5
2.1500001 0.60000002 -0.40000001
2.1500001 0.60000002 -0.30000001
2.1500001 0.60000002 -0.2
2.1500001 0.60000002 -0.1
2.1500001 0.60000002 -2.7755576e-17
2.1500001 0.60000002 0.1
2.1500001 0.60000002 0.2
2.1500001 0.60000002 0.30000001
2.1500001 0.60000002 0.40000001
2.1500001 0.60000002 0.5
2.1500001 0.60000002 0.60000002
2.1500001 0.60000002 0.69999999
2.1500001 0.60000002 0.80000001
2.1500001 0.60000002 0.89999998
2.1500001 0.60000002 1
2.1500001 0.60000002 1.1
2.1500001 0.60000002 1.2
2.1500001 0.60000002 1.3
2.1500001 0.60000002 1.4
2.1500001 0.60000002 1.5
2.1500001 0.60000002 1.6
2.1500001 0.60000002 1.7
2.1500001 0.60000002 1.8
2.1500001 0.60000002 1.9
2.1500001 0.60000002 2
2.1500001 0.60000002 2.0999999
2.1500001 0.60000002 2.2
2.1500001 0.60000002 2.3
2.1500001 0.60000002 2.4000001
2.1500001 0.60000002 2.5
2.1500001 0.60000002 2.5999999
2.1500001 0.60000002 2.7
2.1500001 0.60000002 2.8
2.1500001 0.60000002 2.9000001
2.1500001 0.60000002 3
2.1500001 0.60000002 3.0999999
2.1500001 0.60000002 3.2
2.1500001 0.60000002 3.3
2.1500001 0.60000002 3.4000001
2.1500001 0.60000002 3.5
2.1500001 0.60000002 3.5999999
2.1500001 0.60000002 3.7
2.1500001 0.60000002 3.8
2.1500001 0.60000002 3.9000001
2.1500001 0.60000002 4
2.1500001 0.60000002 4.0999999
2.1500001 0.60000002 4.1999998
2.1500001 0.60000002 4.3000002
2.1500001 0.60000002 4.4000001
2.1500001 0.60000002 4.5
2.1500001 0.60000002 4.5999999
2.1500001 0.60000002 4.6999998
2.1500001 0.60000002 4.8000002
2.1500001 0.60000002 4.9000001
2.1500001 0.60000002 5
2.1500001 0.60000002 5.0999999
2.1500001 0.60000002 5.1999998
2.1500001 0.60000002 5.3000002
2.1500001 0.60000002 5.4000001
2.1500001 0.60000002 5.5
2.05 0.60000002 -0.5
2.05 0.60000002 -0.40000001
2.05 0.60000002 -0.30000001
2.05 0.60000002 -0.2
2.05 0.60000002 -0.1
2.05 0.60000002 -2.7755576e-17
2.05 0.60000002 0.1
2.05 0.60000002 0.2
2.05 0.60000002 0.30000001
2.05 0.60000002 0.40000001
2.05 0.60000002 0.5
2.05 0.60000002 0.60000002
2.05 0.60000002 0.69999999
2.05 0.60000002 0.80000001
2.05 0.60000002 0.89999998
2.05 0.60000002 1
2.05 0.60000002 1.1
2.05 0.60000002 1.2
2.05 0.60000002 1.3
2.05 0.60000002 1.4
2.05 0.60000002 1.5
2.05 0.60000002 1.6
2.05 0.60000002 1.7
2.05 0.60000002 1.8
2.05 0.60000002 1.9
2.05 0.60000002 2
2.05 0.60000002 2.0999999
2.05 0.60000002 2.2
2.05 0.60000002 2.3
2.05 0.60000002 2.4000001
2.05 0.60000002 2.5
2.05 0.60000002 2.5999999
2.05 0.60000002 2.7
2.05 0.60000002 2.8
2.05 0.60000002 2.9000001
2.05 0.60000002 3
2.05 0.60000002 3.0999999
2.05 0.60000002 3.2
2.05 0.60000002 3.3
2.05 0.60000002 3.4000001
2.05 0.60000002 3.5
2.05 0.60000002 3.5999999
2.05 0.60000002 3.7
2.05 0.60000002 3.8
2.05 0.60000002 3.9000001
2.05 0.60000002 4
2.05 0.60000002 4.0999999
2.05 0.60000002 4.1999998
2.05 0.60000002 4.3000002
2.05 0.60000002 4.4000001
2.05 0.60000002 4.5
2.05 0.60000002 4.5999999
2.05 0.60000002 4.6999998
2.05 0.60000002 4.8000002
2.05 0.60000002 4.9000001
2.05 0.60000002 5
2.05 0.60000002 5.0999999
2.05 0.60000002 5.1999998
2.05 0.60000002 5.3000002
2.05 0.60000002 5.4000001
2.05 0.60000002 5.5
1.95 0.60000002 -0.5
1.95 0.60000002 -0.40000001
1.95 0.60000002 -0.30000001
1.95 0.60000002 -0.2
1.95 0.60000002 -0.1
1.95 0.60000002 -2.7755576e-17
1.95 0.60000002 0.1
1.95 0.60000002 0.2
1.95 0.60000002 0.30000001
1.95 0.60000002 0.40000001
1.95 0.60000002 0.5
1.95 0.60000002 0.60000002
1.95 0.60000002 0.69999999
1.95 0.60000002 0.80000001
1.95 0.60000002 0.89999998
1.95 0.60000002 1
1.95 0.60000002 1.1
1.95 0.60000002 1.2
1.95 0.60000002 1.3
1.95 0.60000002 1.4
1.95 0.60000002 1.5
1.95 0.60000002 1.6
1.95 0.60000002 1.7
1.95 0.60000002 1.8
1.95 0.60000002 1.9
1.95 0.60000002 2
1.95 0.60000002 2.0999999
1.95 0.60000002 2.2
1.95 0.60000002 2.3
1.95 0.60000002 2.4000001
1.95 0.60000002 2.5
1.95 0.60000002 2.5999999
1.95 0.60000002 2.7
1.95 0.60000002 2.8
1.95 0.60000002 2.9000001
1.95 0.60000002 3
1.95 0.60000002 3.0999999
1.95 0.60000002 3.2
1.95 0.60000002 3.3
1.95 0.60000002 3.4000001
1.95 0.60000002 3.5
1.95 0.60000002 3.5999999
1.95 0.60000002 3.7
1.95 0.60000002 3.8
1.95 0.60000002 3.9000001
1.95 0.60000002 4
1.95 0.60000002 4.0999999
1.95 0.60000002 4.1999998
1.95 0.60000002 4.3000002
1.95 0.60000002 4.4000001
1.95 0.60000002 4.5
1.95 0.60000002 4.5999999
1.95 0.60000002 4.6999998
1.95 0.60000002 4.8000002
1.95 0.60000002 4.9000001
1.95 0.60000002 5
1.95 0.60000002 5.0999999
1.95 0.60000002 5.1999998
1.95 0.60000002 5.3000002
1.95 0.60000002 5.4000001
1.95 0.60000002 5.5
1.85 0.60000002 -0.5
1.85 0.60000002 -0.40000001
1.85 0.60000002 -0.30000001
1.85 0.60000002 -0.2
1.85 0.60000002 -0.1
1.85 0.60000002 -2.7755576e-17
1.85 0.60000002 0.1
1.85 0.60000002 0.2
1.85 0.60000002 0.30000001
1.85 0.60000002 0.40000001
1.85 0.60000002 0.5
1.85 0.60000002 0.60000002
1.85 0.60000002 0.69999999
1.85 0.60000002 0.80000001
1.85 0.60000002 0.89999998
1.85 0.60000002 1
1.85 0.60000002 1.1
1.85 0.60000002 1.2
1.85 0.60000002 1.3
1.85 0.60000002 1.4
1.85 0.60000002 1.5
1.85 0.60000002 1.6
1.85 0.60000002 1.7
1.85 0.60000002 1.8
1.85 0.60000002 1.9
1.85 0.60000002 2
1.85 0.60000002 2.0999999
1.85 0.60000002 2.2
1.85 0.60000002 2.3
1.85 0.60000002 2.4000001
1.85 0.60000002 2.5
1.85 0.60000002 2.5999999
1.85 0.60000002 2.7
1.85 0.60000002 2.8
1.85 0.60000002 2.9000001
1.85 0.60000002 3
1.85 0.60000002 3.0999999
1.85 0.60000002 3.2
1.85 0.60000002 3.3
1.85 0.60000002 3.4000001
1.85 0.60000002 3.5
1.85 0.60000002 3.5999999
1.85 0.60000002 3.7
1.85 0.60000002 3.8
1.85 0.60000002 3.9000001
1.85 0.60000002 4
1.85 0.60000002 4.0999999
1.85 0.60000002 4.1999998
1.85 0.60000002 4.3000002
1.85 0.60000002 4.4000001
1.85 0.60000002 4.5
1.85 0.60000002 4.5999999
1.85 0.60000002 4.6999998
1.85 0.60000002 4.8000002
1.85 0.60000002 4.9000001
1.85 0.60000002 5
1.85 0.60000002 5.0999999
1.85 0.60000002 5.1999998
1.85 0.60000002 5.3000002
1.85 0.60000002 5.4000001
1.85 0.60000002 5.5
2.1500001 0.69999999 -0.5
2.1500001 0.69999999 -0.40000001
2.1500001 0.69999999 -0.30000001
2.1500001 0.69999999 -0.2
2.1500001 0.69999999 -0.1
2.1500001 0.69999999 -2.7755576e-17
2.1500001 0.69999999 0.1
2.1500001 0.69999999 0.2
2.1500001 0.69999999 0.30000001
2.1500001 0.69999999 0.40000001
2.1500001 0.69999999 0.5
2.1500001 0.69999999 0.60000002
2.1500001 0.69999999 0.69999999
2.1500001 0.69999999 0.80000001
2.1500001 0.69999999 0.89999998
2.1500001 0.69999999 1
2.1500001 0.69999999 1.1
2.1500001 0.69999999 1.2
2.1500001 0.69999999 1.3
2.1500001 0.69999999 1.4
2.1500001 0.69999999 1.5
2.1500001 0.69999999 1.6
2.1500001 0.69999999 1.7
2.1500001 0.69999999 1.8
2.1500001 0.69999999 1.9
2.1500001 0.69999999 2
2.1500001 0.69999999 2.0999999
2.1500001 0.69999999 2.2
2.1500001 0.69999999 2.3
2.1500001 0.69999999 2.4000001
2.1500001 0.69999999 2.5
2.1500001 0.69999999 2.5999999
2.1500001 0.69999999 2.7
2.1500001 0.69999999 2.8
2.1500001 0.69999999 2.9000001
2.1500001 0.69999999 3
2.1500001 0.69999999 3.0999999
2.1500001 0.69999999 3.2
2.1500001 0.69999999 3.3
2.1500001 0.69999999 3.4000001
2.1500001 0.69999999 3.5
2.1500001 0.69999999 3.5999999
2.1500001 0.69999999 3.7
2.1500001 0.69999999 3.8
2.1500001 0.69999999 3.9000001
2.1500001 0.69999999 4
2.1500001 0.69999999 4.0999999
2.1500001 0.69999999 4.1999998
2.1500001 0.69999999 4.3000002
2.1500001 0.69999999 4.4000001
2.1500001 0.69999999 4.5
2.1500001 0.69999999 4.5999999
2.1500001 0.69999999 4.6999998
2.1500001 0.69999999 4.8000002
2.1500001 0.69999999 4.9000001
2.1500001 0.69999999 5
2.1500001 0.69999999 5.0999999
2.1500001 0.69999999 5.1999998
2.1500001 0.69999999 5.3000002
2.1500001 0.69999999 5.4000001
2.1500001 0.69999999 5.5
2.05 0.69999999 -0.5
2.05 0.69999999 -0.40000001
2.05 0.69999999 -0.30000001
2.05 0.69999999 -0.2
2.05 0.69999999 -0.1
2.05 0.69999999 -2.7755576e-17
2.05 0.69999999 0.1
2.05 0.69999999 0.2
2.05 0.69999999 0.30000001
2.05 0.69999999 0.40000001
2.05 0.69999999 0.5
2.05 0.69999999 0.60000002
2.05 0.69999999 0.69999999
2.05 0.69999999 0.80000001
2.05 0.69999999 0.89999998
2.05 0.69999999 1
2.05 0.69999999 1.1
2.05 0.69999999 1.2
2.05 0.69999999 1.3
2.05 0.69999999 1.4
2.05 0.69999999 1.5
2.05 0.69999999 1.6
2.05 0.69999999 1.7
2.05 0.69999999 1.8
2.05 0.69999999 1.9
2.05 0.69999999 2
2.05 0.69999999 2.0999999
2.05 0.69999999 2.2
2.05 0.69999999 2.3
2.05 0.69999999 2.4000001
2.05 0.69999999 2.5
2.05 0.69999999 2.5999999
2.05 0.69999999 2.7
2.05 0.69999999 2.8
2.05 0.69999999 2.9000001
2.05 0.69999999 3
2.05 0.69999999 3.0999999
2.05 0.69999999 3.2
2.05 0.69999999 3.3
2.05 0.69999999 3.4000001
2.05 0.69999999 3.5
2.05 0.69999999 3.5999999
2.05 0.69999999 3.7
2.05 0.69999999 3.8
2.05 0.69999999 3.9000001
2.05 0.69999999 4
2.05 0.69999999 4.0999999
2.05 0.69999999 4.1999998
2.05 0.69999999 4.3000002
2.05 0.69999999 4.4000001
2.05 0.69999999 4.5
2.05 0.69999999 4.5999999
2.05 0.69999999 4.6999998
2.05 0.69999999 4.8000002
2.05 0.69999999 4.9000001
2.05 0.69999999 5
2.05 0.69999999 5.0999999
2.05 0.69999999 5.1999998
2.05 0.69999999 5.3000002
2.05 0.69999999 5.4000001
2.05 0.69999999 5.5
1.95 0.69999999 -0.5
1.95 0.69999999 -0.40000001
1.95 0.69999999 -0.30000001
1.95 0.69999999 -0.2
1.95 0.69999999 -0.1
1.95 0.69999999 -2.7755576e-17
1.95 0.69999999 0.1
1.95 0.69999999 0.2
1.95 0.69999999 0.30000001
1.95 0.69999999 0.40000001
1.95 0.69999999 0.5
1.95 0.69999999 0.60000002
1.95 0.69999999 0.69999999
1.95 0.69999999 0.80000001
1.95 0.69999999 0.89999998
1.95 0.69999999 1
1.95 0.69999999 1.1
1.95 0.69999999 1.2
1.95 0.69999999 1.3
1.95 0.69999999 1.4
1.95 0.69999999 1.5
1.95 0.69999999 1.6
1.95 0.69999999 1.7
1.95 0.69999999 1.8
1.95 0.69999999 1.9
1.95 0.69999999 2
1.95 0.69999999 2.0999999
1.95 0.69999999 2.2
1.95 0.69999999 2.3
1.95 0.69999999 2.4000001
1.95 0.69999999 2.5
1.95 0.69999999 2.5999999
1.95 0.69999999 2.7
1.95 0.69999999 2.8
1.95 0.69999999 2.9000001
1.95 0.69999999 3
1.95 0.69999999 3.0999999
1.95 0.69999999 3.2
1.95 0.69999999 3.3
1.95 0.69999999 3.4000001
1.95 0.69999999 3.5
1.95 0.69999999 3.5999999
1.95 0.69999999 3.7
1.95 0.69999999 3.8
1.95 0.69999999 3.9000001
1.95 0.69999999 4
1.95 0.69999999 4.0999999
1.95 0.69999999 4.1999998
1.95 0.69999999 4.3000002
1.95 0.69999999 4.4000001
1.95 0.69999999 4.5
1.95 0.69999999 4.5999999
1.95 0.69999999 4.6999998
1.95 0.69999999 4.8000002
1.95 0.69999999 4.9000001
1.95 0.69999999 5
1.95 0.69999999 5.0999999
1.95 0.69999999 5.1999998
1.95 0.69999999 5.3000002
1.95 0.69999999 5.4000001
1.95 0.69999999 5.5
1.85 0.69999999 -0.5
1.85 0.69999999 -0.40000001
1.85 0.69999999 -0.30000001
1.85 0.69999999 -0.2
1.85 0.69999999 -0.1
1.85 0.69999999 -2.7755576e-17
1.85 0.69999999 0.1
1.85 0.69999999 0.2
1.85 0.69999999 0.30000001
1.85 0.69999999 0.40000001
1.85 0.69999999 0.5
1.85 0.69999999 0.60000002
1.85 0.69999999 0.69999999
1.85 0.69999999 0.80000001
1.85 0.69999999 0.89999998
1.85 0.69999999 1
1.85 0.69999999 1.1
1.85 0.69999999 1.2
1.85 0.69999999 1.3
1.85 0.69999999 1.4
1.85 0.69999999 1.5
1.85 0.69999999 1.6
1.85 0.69999999 1.7
1.85 0.69999999 1.8
1.85 0.69999999 1.9
1.85 0.69999999 2
1.85 0.69999999 2.0999999
1.85 0.69999999 2.2
1.85 0.69999999 2.3
1.85 0.69999999 2.4000001
1.85 0.69999999 2.5
1.85 0.69999999 2.5999999
1.85 0.69999999 2.7
1.85 0.69999999 2.8
1.85 0.69999999 2.9000001
1.85 0.69999999 3
1.85 0.69999999 3.0999999
1.85 0.69999999 3.2
1.85 0.69999999 3.3
1.85 0.69999999 3.4000001
1.85 0.69999999 3.5
1.85 0.69999999 3.5999999
1.85 0.69999999 3.7
1.85 0.69999999 3.8
1.85 0.69999999 3.9000001
1.85 0.69999999 4
1.85 0.69999999 4.0999999
1.85 0.69999999 4.1999998
1.85 0.69999999 4.3000002
1.85 0.69999999 4.4000001
1.85 0.69999999 4.5
1.85 0.69999999 4.5999999
1.85 0.69999999 4.6999998
1.85 0.69999999 4.8000002
1.85 0.69999999 4.9000001
1.85 0.69999999 5
1.85 0.69999999 5.0999999
1.85 0.69999999 5.1999998
1.85 0.69999999 5.3000002
1.85 0.69999999 5.4000001
1.85 0.69999999 5.5
2.1500001 0.80000001 -0.5
2.1500001 0.80000001 -0.40000001
2.1500001 0.80000001 -0.30000001
2.1500001 0.80000001 -0.2
2.1500001 0.80000001 -0.1
2.1500001 0.80000001 -2.7755576e-17
2.1500001 0.80000001 0.1
2.1500001 0.80000001 0.2
2.1500001 0.80000001 0.30000001
2.1500001 0.80000001 0.40000001
2.1500001 0.80000001 0.5
2.1500001 0.80000001 0.60000002
2.1500001 0.80000001 0.69999999
2.1500001 0.80000001 0.80000001
2.1500001 0.80000001 0.89999998
2.1500001 0.80000001 1
2.1500001 0.80000001 1.1
2.1500001 0.80000001 1.2
2.1500001 0.80000001 1.3
2.1500001 0.80000001 1.4
2.1500001 0.80000001 1.5
2.1500001 0.80000001 1.6
2.1500001 0.80000001 1.7
2.1500001 0.80000001 1.8
2.1500001 0.80000001 1.9
2.1500001 0.80000001 2
2.1500001 0.80000001 2.0999999
2.1500001 0.80000001 2.2
2.1500001 0.80000001 2.3
2.1500001 0.80000001 2.4000001
2.1500001 0.80000001 2.5
2.1500001 0.80000001 2.5999999
2.1500001 0.80000001 2.7
2.1500001 0.80000001 2.8
2.1500001 0.80000001 2.9000001
2.1500001 0.80000001 3
2.1500001 0.80000001 3.0999999
2.1500001 0.80000001 3.2
2.1500001 0.80000001 3.3
2.1500001 0.80000001 3.4000001
2.1500001 0.80000001 3.5
2.1500001 0.80000001 3.5999999
2.1500001 0.80000001 3.7
2.1500001 0.80000001 3.8
2.1500001 0.80000001 3.9000001
2.1500001 0.80000001 4
2.1500001 0.80000001 4.0999999
2.1500001 0.80000001 4.1999998
2.1500001 0.80000001 4.3000002
2.1500001 0.80000001 4.4000001
2.1500001 0.80000001 4.5
2.1500001 0.80000001 4.5999999
2.1500001 0.80000001 4.6999998
2.1500001 0.80000001 4.8000002
2.1500001 0.80000001 4.9000001
2.1500001 0.80000001 5
2.1500001 0.80000001 5.0999999
2.1500001 0.80000001 5.1999998
2.1500001 0.80000001 5.3000002
2.1500001 0.80000001 5.4000001
2.1500001 0.80000001 5.5
2.05 0.80000001 -0.5
2.05 0.80000001 -0.40000001
2.05 0.80000001 -0.30000001
2.05 0.80000001 -0.2
2.05 0.80000001 -0.1
2.05 0.80000001 -2.7755576e-17
2.05 0.80000001 0.1
2.05 0.80000001 0.2
2.05 0.80000001 0.30000001
2.05 0.80000001 0.40000001
2.05 0.80000001 0.5
2.05 0.80000001 0.60000002
2.05 0.80000001 0.69999999
2.05 0.80000001 0.80000001
2.05 0.80000001 0.89999998
2.05 0.80000001 1
2.05 0.80000001 1.1
2.05 0.80000001 1.2
2.05 0.80000001 1.3
2.05 0.80000001 1.4
2.05 0.80000001 1.5
2.05 0.80000001 1.6
2.05 0.80000001 1.7
2.05 0.80000001 1.8
2.05 0.80000001 1.9
2.05 0.80000001 2
2.05 0.80000001 2.0999999
2.05 0.80000001 2.2
2.05 0.80000001 2.3
2.05 0.80000001 2.4000001
2.05 0.80000001 2.5
2.05 0.80000001 2.5999999
2.05 0.80000001 2.7
2.05 0.80000001 2.8
2.05 0.80000001 2.9000001
2.05 0.80000001 3
2.05 0.80000001 3.0999999
2.05 0.80000001 3.2
2.05 0.80000001 3.3
2.05 0.80000001 3.4000001
2.05 0.80000001 3.5
2.05 0.80000001 3.5999999
2.05 0.80000001 3.7
2.05 0.80000001 3.8
2.05 0.80000001 3.9000001
2.05 0.80000001 4
2.05 0.80000001 4.0999999
2.05 0.80000001 4.1999998
2.05 0.80000001 4.3000002
2.05 0.80000001 4.4000001
2.05 0.80000001 4.5
2.05 0.80000001 4.5999999
2.05 0.80000001 4.6999998
2.05 0.80000001 4.8000002
2.05 0.80000001 4.9000001
2.05 0.80000001 5
2.05 0.80000001 5.0999999
2.05 0.80000001 5.1999998
2.05 0.80000001 5.3000002
2.05 0.80000001 5.4000001
2.05 0.80000001 5.5
1.95 0.80000001 -0.5
1.95 0.80000001 -0.40000001
1.95 0.80000001 -0.30000001
1.95 0.80000001 -0.2
1.95 0.80000001 -0.1
1.95 0.80000001 -2.7755576e-17
1.95 0.80000001 0.1
1.95 0.80000001 0.2
1.95 0.80000001 0.30000001
1.95 0.80000001 0.40000001
1.95 0.80000001 0.5
1.95 0.80000001 0.60000002
1.95 0.80000001 0.69999999
1.95 0.80000001 0.80000001
1.95 0.80000001 0.89999998
1.95 0.80000001 1
1.95 0.80000001 1.1
1.95 0.80000001 1.2
1.95 0.80000001 1.3
1.95 0.80000001 1.4
1.95 0.80000001 1.5
1.95 0.80000001 1.6
1.95 0.80000001 1.7
1.95 0.80000001 1.8
1.95 0.80000001 1.9
1.95 0.80000001 2
1.95 0.80000001 2.0999999
1.95 0.80000001 2.2
1.95 0.80000001 2.3
1.95 0.80000001 2.4000001
1.95 0.80000001 2.5
1.95 0.80000001 2.5999999
1.95 0.80000001 2.7
1.95 0.80000001 2.8
1.95 0.80000001 2.9000001
1.95 0.80000001 3
1.95 0.80000001 3.0999999
1.95 0.80000001 3.2
1.95 0.80000001 3.3
1.95 0.80000001 3.4000001
1.95 0.80000001 3.5
1.95 0.80000001 3.5999999
1.95 0.80000001 3.7
1.95 0.80000001 3.8
1.95 0.80000001 3.9000001
1.95 0.80000001 4
1.95 0.80000001 4.0999999
1.95 0.80000001 4.1999998
1.95 0.80000001 4.3000002
1.95 0.80000001 4.4000001
1.95 0.80000001 4.5
1.95 0.80000001 4.5999999
1.95 0.80000001 4.6999998
1.95 0.80000001 4.8000002
1.95 0.80000001 4.9000001
1.95 0.80000001 5
1.95 0.80000001 5.0999999
1.95 0.80000001 5.1999998
1.95 0.80000001 5.3000002
1.95 0.80000001 5.4000001
1.95 0.80000001 5.5
1.85 0.80000001 -0.5
1.85 0.80000001 -0.40000001
1.85 0.80000001 -0.30000001
1.85 0.80000001 -0.2
1.85 0.80000001 -0.1
1.85 0.80000001 -2.7755576e-17
1.85 0.80000001 0.1
1.85 0.80000001 0.2
1.85 0.80000001 0.30000001
1.85 0.80000001 0.40000001
1.85 0.80000001 0.5
1.85 0.80000001 0.60000002
1.85 0.80000001 0.69999999
1.85 0.80000001 0.80000001
1.85 0.80000001 0.89999998
1.85 0.80000001 1
1.85 0.80000001 1.1
1.85 0.80000001 1.2
1.85 0.80000001 1.3
1.85 0.80000001 1.4
1.85 0.80000001 1.5
1.85 0.80000001 1.6
1.85 0.80000001 1.7
1.85 0.80000001 1.8
1.85 0.80000001 1.9
1.85 0.80000001 2
1.85 0.80000001 2.0999999
1.85 0.80000001 2.2
1.85 0.80000001 2.3
1.85 0.80000001 2.4000001
1.85 0.80000001 2.5
1.85 0.80000001 2.5999999
1.85 0.80000001 2.7
1.85 0.80000001 2.8
1.85 0.80000001 2.9000001
1.85 0.80000001 3
1.85 0.80000001 3.0999999
1.85 0.80000001 3.2
1.85 0.80000001 3.3
1.85 0.80000001 3.4000001
1.85 0.80000001 3.5
1.85 0.80000001 3.5999999
1.85 0.80000001 3.7
1.85 0.80000001 3.8
1.85 0.80000001 3.9000001
1.85 0.80000001 4
1.85 0.80000001 4.0999999
1.85 0.80000001 4.1999998
1.85 0.80000001 4.3000002
1.85 0.80000001 4.4000001
1.85 0.80000001 4.5
1.85 0.80000001 4.5999999
1.85 0.80000001 4.6999998
1.85 0.80000001 4.8000002
1.85 0.80000001 4.9000001
1.85 0.80000001 5
1.85 0.80000001 5.0999999
1.85 0.80000001 5.1999998
1.85 0.80000001 5.3000002
1.85 0.80000001 5.4000001
1.85 0.80000001 5.5
2.1500001 0.89999998 -0.5
2.1500001 0.89999998 -0.40000001
2.1500001 0.89999998 -0.30000001
2.1500001 0.89999998 -0.2
2.1500001 0.89999998 -0.1
2.1500001 0.89999998 -2.7755576e-17
2.1500001 0.89999998 0.1
2.1500001 0.89999998 0.2
2.1500001 0.89999998 0.30000001
2.1500001 0.89999998 0.40000001
2.1500001 0.89999998 0.5
2.1500001 0.89999998 0.60000002
2.1500001 0.89999998 0.69999999
2.1500001 0.89999998 0.80000001
2.1500001 0.89999998 0.89999998
2.1500001 0.89999998 1
2.1500001 0.89999998 1.1
2.1500001 0.89999998 1.2
2.1500001 0.89999998 1.3
2.1500001 0.89999998 1.4
2.1500001 0.89999998 1.5
2.1500001 0.89999998 1.6
2.1500001 0.89999998 1.7
2.1500001 0.89999998 1.8
2.1500001 0.89999998 1.9
2.1500001 0.89999998 2
2.1500001 0.89999998 2.0999999
2.1500001 0.89999998 2.2
2.1500001 0.89999998 2.3
2.1500001 0.89999998 2.4000001
2.1500001 0.89999998 2.5
2.1500001 0.89999998 2.5999999
2.1500001 0.89999998 2.7
2.1500001 0.89999998 2.8
2.1500001 0.89999998 2.9000001
2.1500001 0.89999998 3
2.1500001 0.89999998 3.0999999
2.1500001 0.89999998 3.2
2.1500001 0.89999998 3.3
2.1500001 0.89999998 3.4000001
2.1500001 0.89999998 3.5
2.1500001 0.89999998 3.5999999
2.1500001 0.89999998 3.7
2.1500001 0.89999998 3.8
2.1500001 0.89999998 3.9000001
2.1500001 0.89999998 4
2.1500001 0.89999998 4.0999999
2.1500001 0.89999998 4.1999998
2.1500001 0.89999998 4.3000002
2.1500001 0.89999998 4.4000001
2.1500001 0.89999998 4.5
2.1500001 0.89999998 4.5999999
2.1500001 0.89999998 4.6999998
2.1500001 0.89999998 4.8000002
2.1500001 0.89999998 4.9000001
2.1500001 0.89999998 5
2.1500001 0.89999998 5.0999999
2.1500001 0.89999998 5.1999998
2.1500001 0.89999998 5.3000002
2.1500001 0.89999998 5.4000001
2.1500001 0.89999998 5.5
2.05 0.89999998 -0.5
2.05 0.89999998 -0.40000001
2.05 0.89999998 -0.30000001
2.05 0.89999998 -0.2
2.05 0.89999998 -0.1
2.05 0.89999998 -2.7755576e-17
2.05 0.89999998 0.1
2.05 0.89999998 0.2
2.05 0.89999998 0.30000001
2.05 0.89999998 0.40000001
2.05 0.89999998 0.5
2.05 0.89999998 0.60000002
2.05 0.89999998 0.69999999
2.05 0.89999998 0.80000001
2.05 0.89999998 0.89999998
2.05 0.89999998 1
2.05 0.89999998 1.1
2.05 0.89999998 1.2
2.05 0.89999998 1.3
2.05 0.89999998 1.4
2.05 0.89999998 1.5
2.05 0.89999998 1.6
2.05 0.89999998 1.7
2.05 0.89999998 1.8
2.05 0.89999998 1.9
2.05 0.89999998 2
2.05 0.89999998 2.0999999
2.05 0.89999998 2.2
2.05 0.89999998 2.3
2.05 0.89999998 2.4000001
2.05 0.89999998 2.5
2.05 0.89999998 2.5999999
2.05 0.89999998 2.7
2.05 0.89999998 2.8
2.05 0.89999998 2.9000001
2.05 0.89999998 3
2.05 0.89999998 3.0999999
2.05 0.89999998 3.2
2.05 0.89999998 3.3
2.05 0.89999998 3.4000001
2.05 0.89999998 3.5
2.05 0.89999998 3.5999999
2.05 0.89999998 3.7
2.05 0.89999998 3.8
2.05 0.89999998 3.9000001
2.05 0.89999998 4
2.05 0.89999998 4.0999999
2.05 0.89999998 4.1999998
2.05 0.89999998 4.3000002
2.05 0.89999998 4.4000001
2.05 0.89999998 4.5
2.05 0.89999998 4.5999999
2.05 0.89999998 4.6999998
2.05 0.89999998 4.8000002
2.05 0.89999998 4.9000001
2.05 0.89999998 5
2.05 0.89999998 5.0999999
2.05 0.89999998 5.1999998
2.05 0.89999998 5.3000002
2.05 0.89999998 5.4000001
2.05 0.89999998 5.5
1.95 0.89999998 -0.5
1.95 0.89999998 -0.40000001
1.95 0.89999998 -0.30000001
1.95 0.89999998 -0.2
1.95 0.89999998 -0.1
1.95 0.89999998 -2.7755576e-17
1.95 0.89999998 0.1
1.95 0.89999998 0.2
1.95 0.89999998 0.30000001
1.95 0.89999998 0.40000001
1.95 0.89999998 0.5
1.95 0.89999998 0.60000002
1.95 0.89999998 0.69999999
1.95 0.89999998 0.80000001
1.95 0.89999998 0.89999998
1.95 0.89999998 1
1.95 0.89999998 1.1
1.95 0.89999998 1.2
1.95 0.89999998 1.3
1.95 0.89999998 1.4
1.95 0.89999998 1.5
1.95 0.89999998 1.6
1.95 0.89999998 1.7
1.95 0.89999998 1.8
1.95 0.89999998 1.9
1.95 0.89999998 2
1.95 0.89999998 2.0999999
1.95 0.89999998 2.2
1.95 0.89999998 2.3
1.95 0.89999998 2.4000001
1.95 0.89999998 2.5
1.95 0.89999998 2.5999999
1.95 0.89999998 2.7
1.95 0.89999998 2.8
1.95 0.89999998 2.9000001
1.95 0.89999998 3
1.95 0.89999998 3.0999999
1.95 0.89999998 3.2
1.95 0.89999998 3.3
1.95 0.89999998 3.4000001
1.95 0.89999998 3.5
1.95 0.89999998 3.5999999
1.95 0.89999998 3.7
1.95 0.89999998 3.8
1.95 0.89999998 3.9000001
1.95 0.89999998 4
1.95 0.89999998 4.0999999
1.95 0.89999998 4.1999998
1.95 0.89999998 4.3000002
1.95 0.89999998 4.4000001
1.95 0.89999998 4.5
1.95 0.89999998 4.5999999
1.95 0.89999998 4.6999998
1.95 0.89999998 4.8000002
1.95 0.89999998 4.9000001
1.95 0.89999998 5
1.95 0.89999998 5.0999999
1.95 0.89999998 5.1999998
1.95 0.89999998 5.3000002
1.95 0.89999998 5.4000001
1.95 0.89999998 5.5
1.85 0.89999998 -0.5
1.85 0.89999998 -0.40000001
1.85 0.89999998 -0.30000001
1.85 0.89999998 -0.2
1.85 0.89999998 -0.1
1.85 0.89999998 -2.7755576e-17
1.85 0.89999998 0.1
1.85 0.89999998 0.2
1.85 0.89999998 0.30000001
1.85 0.89999998 0.40000001
1.85 0.89999998 0.5
1.85 0.89999998 0.60000002
1.85 0.89999998 0.69999999
1.85 0.89999998 0.80000001
1.85 0.89999998 0.89999998
1.85 0.89999998 1
1.85 0.89999998 1.1
1.85 0.89999998 1.2
1.85 0.89999998 1.3
1.85 0.89999998 1.4
1.85 0.89999998 1.5
1.85 0.89999998 1.6
1.85 0.89999998 1.7
1.85 0.89999998 1.8
1.85 0.89999998 1.9
1.85 0.89999998 2
1.85 0.89999998 2.0999999
1.85 0.89999998 2.2
1.85 0.89999998 2.3
1.85 0.89999998 2.4000001
1.85 0.89999998 2.5
1.85 0.89999998 2.5999999
1.85 0.89999998 2.7
1.85 0.89999998 2.8
1.85 0.89999998 2.9000001
1.85 0.89999998 3
1.85 0.89999998 3.0999999
1.85 0.89999998 3.2
1.85 0.89999998 3.3
1.85 0.89999998 3.4000001
1.85 0.89999998 3.5
1.85 0.89999998 3.5999999
1.85 0.89999998 3.7
1.85 0.89999998 3.8
1.85 0.89999998 3.9000001
1.85 0.89999998 4
1.85 0.89999998 4.0999999
1.85 0.89999998 4.1999998
1.85 0.89999998 4.3000002
1.85 0.89999998 4.4000001
1.85 0.89999998 4.5
1.85 0.89999998 4.5999999
1.85 0.89999998 4.6999998
1.85 0.89999998 4.8000002
1.85 0.89999998 4.9000001
1.85 0.89999998 5
1.85 0.89999998 5.0999999
1.85 0.89999998 5.1999998
1.85 0.89999998 5.3000002
1.85 0.89999998 5.4000001
1.85 0.89999998 5.5
2.1500001 1 -0.5
2.1500001 1 -0.40000001
2.1500001 1 -0.30000001
2.1500001 1 -0.2
2.1500001 1 -0.1
2.1500001 1 -2.7755576e-17
2.1500001 1 0.1
2.1500001 1 0.2
2.1500001 1 0.30000001
2.1500001 1 0.40000001
2.1500001 1 0.5
2.1500001 1 0.60000002
2.1500001 1 0.69999999
2.1500001 1 0.80000001
2.1500001 1 0.89999998
2.1500001 1 1
2.1500001 1 1.1
2.1500001 1 1.2
2.1500001 1 1.3
2.1500001 1 1.4
2.1500001 1 1.5
2.1500001 1 1.6
2.1500001 1 1.7
2.1500001 1 1.8
2.1500001 1 1.9
2.1500001 1 2
2.1500001 1 2.0999999
2.1500001 1 2.2
2.1500001 1 2.3
2.1500001 1 2.4000001
2.1500001 1 2.5
2.1500001 1 2.5999999
2.1500001 1 2.7
2.1500001 1 2.8
2.1500001 1 2.9000001
2.1500001 1 3
2.1500001 1 3.0999999
2.1500001 1 3.2
2.1500001 1 3.3
2.1500001 1 3.4000001
2.1500001 1 3.5
2.1500001 1 3.5999999
2.1500001 1 3.7
2.1500001 1 3.8
2.1500001 1 3.9000001
2.1500001 1 4
2.1500001 1 4.0999999
2.1500001 1 4.1999998
2.1500001 1 4.3000002
2.1500001 1 4.4000001
2.1500001 1 4.5
2.1500001 1 4.5999999
2.1500001 1 4.6999998
2.1500001 1 4.8000002
2.1500001 1 4.9000001
2.1500001 1 5
2.1500001 1 5.0999999
2.1500001 1 5.1999998
2.1500001 1 5.3000002
2.1500001 1 5.4000001
2.1500001 1 5.5
2.05 1 -0.5
2.05 1 -0.40000001
2.05 1 -0.30000001
2.05 1 -0.2
2.05 1 -0.1
2.05 1 -2.7755576e-17
2.05 1 0.1
2.05 1 0.2
2.05 1 0.30000001
2.05 1 0.40000001
2.05 1 0.5
2.05 1 0.60000002
2.05 1 0.69999999
2.05 1 0.80000001
2.05 1 0.89999998
2.05 1 1
2.05 1 1.1
2.05 1 1.2
2.05 1 1.3
2.05 1 1.4
2.05 1 1.5
2.05 1 1.6
2.05 1 1.7
2.05 1 1.8
2.05 1 1.9
2.05 1 2
2.05 1 2.0999999
2.05 1 2.2
2.05 1 2.3
2.05 1 2.4000001
2.05 1 2.5
2.05 1 2.5999999
2.05 1 2.7
2.05 1 2.8
2.05 1 2.9000001
2.05 1 3
2.05 1 3.0999999
2.05 1 3.2
2.05 1 3.3
2.05 1 3.4000001
2.05 1 3.5
2.05 1 3.5999999
2.05 1 3.7
2.05 1 3.8
