# .PCD v0.7 - Point Cloud Data file format
VERSION 0.7
FIELDS x y z
SIZE 4 4 4
TYPE F F F
COUNT 1 1 1
WIDTH 1660
HEIGHT 1
VIEWPOINT 0 0 0 1 0 0 0
POINTS 1660
DATA ascii
11.524274 -0.13638674 0.1
11.524274 -0.13638674 0.2
11.524274 -0.13638674 0.30000001
11.524274 -0.13638674 0.40000001
11.524274 -0.13638674 0.5
11.524274 -0.13638674 0.60000002
11.524274 -0.13638674 0.69999999
11.524274 -0.13638674 0.80000001
11.524274 -0.13638674 0.89999998
11.524274 -0.13638674 1
11.524274 -0.13638674 1.1
11.524274 -0.13638674 1.2
11.524274 -0.13638674 1.3
11.524274 -0.13638674 1.4
11.524274 -0.13638674 1.5
11.524274 -0.13638674 1.6
11.524274 -0.13638674 1.7
11.524274 -0.13638674 1.8
11.524274 -0.13638674 1.9
11.524274 -0.13638674 2
11.524274 -0.13638674 2.0999999
11.524274 -0.13638674 2.2
11.524274 -0.13638674 2.3
11.524274 -0.13638674 2.4000001
11.524274 -0.13638674 2.5
11.524274 -0.13638674 2.5999999
11.524274 -0.13638674 2.7
11.524274 -0.13638674 2.8
11.524274 -0.13638674 2.9000001
11.524274 -0.13638674 3
11.524274 -0.13638674 3.0999999
11.524274 -0.13638674 3.2
11.524274 -0.13638674 3.3
11.524274 -0.13638674 3.4000001
11.524274 -0.13638674 3.5
11.524274 -0.13638674 3.5999999
11.524274 -0.13638674 3.7
11.524274 -0.13638674 3.8
11.524274 -0.13638674 3.9000001
11.524274 -0.13638674 4
11.524274 -0.13638674 4.0999999
11.524274 -0.13638674 4.1999998
11.524274 -0.13638674 4.3000002
11.524274 -0.13638674 4.4000001
11.524274 -0.13638674 4.5
11.524274 -0.13638674 4.5999999
11.524274 -0.13638674 4.6999998
11.524274 -0.13638674 4.8000002
11.524274 -0.13638674 4.9000001
11.524274 -0.13638674 5
11.524274 -0.13638674 5.0999999
11.524274 -0.13638674 5.1999998
11.524274 -0.13638674 5.3000002
11.524274 -0.13638674 5.4000001
11.524274 -0.13638674 5.5
11.424764 0.16377607 -0.5
11.424764 0.16377607 -0.40000001
11.424764 0.16377607 -0.30000001
11.424764 0.16377607 -0.2
11.424764 0.16377607 -0.1
11.424764 0.16377607 -2.7755576e-17
11.424764 0.16377607 0.1
11.424764 0.16377607 0.2
11.424764 0.16377607 0.30000001
11.424764 0.16377607 0.40000001
11.424764 0.16377607 0.5
11.424764 0.16377607 0.60000002
11.424764 0.16377607 0.69999999
11.424764 0.16377607 0.80000001
11.424764 0.16377607 0.89999998
11.424764 0.16377607 1
11.424764 0.16377607 1.1
11.424764 0.16377607 1.2
11.424764 0.16377607 1.3
11.424764 0.16377607 1.4
11.424764 0.16377607 1.5
11.424764 0.16377607 1.6
11.424764 0.16377607 1.7
11.424764 0.16377607 1.8
11.424764 0.16377607 1.9
11.424764 0.16377607 2
11.424764 0.16377607 2.0999999
11.424764 0.16377607 2.2
11.424764 0.16377607 2.3
11.424764 0.16377607 2.4000001
11.424764 0.16377607 2.5
11.424764 0.16377607 2.5999999
11.424764 0.16377607 2.7
11.424764 0.16377607 2.8
11.424764 0.16377607 2.9000001
11.424764 0.16377607 3
11.424764 0.16377607 3.0999999
11.424764 0.16377607 3.2
11.424764 0.16377607 3.3
11.424764 0.16377607 3.4000001
11.424764 0.16377607 3.5
11.424764 0.16377607 3.5999999
11.424764 0.16377607 3.7
11.424764 0.16377607 3.8
11.424764 0.16377607 3.9000001
11.424764 0.16377607 4
11.424764 0.16377607 4.0999999
11.424764 0.16377607 4.1999998
11.424764 0.16377607 4.3000002
11.424764 0.16377607 4.4000001
11.424764 0.16377607 4.5
11.424764 0.16377607 4.5999999
11.424764 0.16377607 4.6999998
11.424764 0.16377607 4.8000002
11.424764 0.16377607 4.9000001
11.424764 0.16377607 5
11.424764 0.16377607 5.0999999
11.424764 0.16377607 5.1999998
11.424764 0.16377607 5.3000002
11.424764 0.16377607 5.4000001
11.424764 0.16377607 5.5
11.424601 0.063776195 -0.5
11.424601 0.063776195 -0.40000001
11.424601 0.063776195 -0.30000001
11.424601 0.063776195 -0.2
11.424601 0.063776195 -0.1
11.424601 0.063776195 -2.7755576e-17
11.424601 0.063776195 0.1
11.424601 0.063776195 0.2
11.424601 0.063776195 0.30000001
11.424601 0.063776195 0.40000001
11.424601 0.063776195 0.5
11.424601 0.063776195 0.60000002
11.424601 0.063776195 0.69999999
11.424601 0.063776195 0.80000001
11.424601 0.063776195 0.89999998
11.424601 0.063776195 1
11.424601 0.063776195 1.1
11.424601 0.063776195 1.2
11.424601 0.063776195 1.3
11.424601 0.063776195 1.4
11.424601 0.063776195 1.5
11.424601 0.063776195 1.6
11.424601 0.063776195 1.7
11.424601 0.063776195 1.8
11.424601 0.063776195 1.9
11.424601 0.063776195 2
11.424601 0.063776195 2.0999999
11.424601 0.063776195 2.2
11.424601 0.063776195 2.3
11.424601 0.063776195 2.4000001
11.424601 0.063776195 2.5
11.424601 0.063776195 2.5999999
11.424601 0.063776195 2.7
11.424601 0.063776195 2.8
11.424601 0.063776195 2.9000001
11.424601 0.063776195 3
11.424601 0.063776195 3.0999999
11.424601 0.063776195 3.2
11.424601 0.063776195 3.3
11.424601 0.063776195 3.4000001
11.424601 0.063776195 3.5
11.424601 0.063776195 3.5999999
11.424601 0.063776195 3.7
11.424601 0.063776195 3.8
11.424601 0.063776195 3.9000001
11.424601 0.063776195 4
11.424601 0.063776195 4.0999999
11.424601 0.063776195 4.1999998
11.424601 0.063776195 4.3000002
11.424601 0.063776195 4.4000001
11.424601 0.063776195 4.5
11.424601 0.063776195 4.5999999
11.424601 0.063776195 4.6999998
11.424601 0.063776195 4.8000002
11.424601 0.063776195 4.9000001
11.424601 0.063776195 5
11.424601 0.063776195 5.0999999
11.424601 0.063776195 5.1999998
11.424601 0.063776195 5.3000002
11.424601 0.063776195 5.4000001
11.424601 0.063776195 5.5
11.424438 -0.036223669 -0.5
11.424438 -0.036223669 -0.40000001
11.424438 -0.036223669 -0.30000001
11.424438 -0.036223669 -0.2
11.424438 -0.036223669 -0.1
11.424438 -0.036223669 -2.7755576e-17
11.424438 -0.036223669 0.1
11.424438 -0.036223669 0.2
11.424438 -0.036223669 0.30000001
11.424438 -0.036223669 0.40000001
11.424438 -0.036223669 0.5
11.424438 -0.036223669 0.60000002
11.424438 -0.036223669 0.69999999
11.424438 -0.036223669 0.80000001
11.424438 -0.036223669 0.89999998
11.424438 -0.036223669 1
11.424438 -0.036223669 1.1
11.424438 -0.036223669 1.2
11.424438 -0.036223669 1.3
11.424438 -0.036223669 1.4
11.424438 -0.036223669 1.5
11.424438 -0.036223669 1.6
11.424438 -0.036223669 1.7
11.424438 -0.036223669 1.8
11.424438 -0.036223669 1.9
11.424438 -0.036223669 2
11.424438 -0.036223669 2.0999999
11.424438 -0.036223669 2.2
11.424438 -0.036223669 2.3
11.424438 -0.036223669 2.4000001
11.424438 -0.036223669 2.5
11.424438 -0.036223669 2.5999999
11.424438 -0.036223669 2.7
11.424438 -0.036223669 2.8
11.424438 -0.036223669 2.9000001
11.424438 -0.036223669 3
11.424438 -0.036223669 3.0999999
11.424438 -0.036223669 3.2
11.424438 -0.036223669 3.3
11.424438 -0.036223669 3.4000001
11.424438 -0.036223669 3.5
11.424438 -0.036223669 3.5999999
11.424438 -0.036223669 3.7
11.424438 -0.036223669 3.8
11.424438 -0.036223669 3.9000001
11.424438 -0.036223669 4
11.424438 -0.036223669 4.0999999
11.424438 -0.036223669 4.1999998
11.424438 -0.036223669 4.3000002
11.424438 -0.036223669 4.4000001
11.424438 -0.036223669 4.5
11.424438 -0.036223669 4.5999999
11.424438 -0.036223669 4.6999998
11.424438 -0.036223669 4.8000002
11.424438 -0.036223669 4.9000001
11.424438 -0.036223669 5
11.424438 -0.036223669 5.0999999
11.424438 -0.036223669 5.1999998
11.424438 -0.036223669 5.3000002
11.424438 -0.036223669 5.4000001
11.424438 -0.036223669 5.5
11.424274 -0.13622354 -0.5
11.424274 -0.13622354 -0.40000001
11.424274 -0.13622354 -0.30000001
11.424274 -0.13622354 -0.2
11.424274 -0.13622354 -0.1
11.424274 -0.13622354 -2.7755576e-17
11.424274 -0.13622354 0.1
11.424274 -0.13622354 0.2
11.424274 -0.13622354 0.30000001
11.424274 -0.13622354 0.40000001
11.424274 -0.13622354 0.5
11.424274 -0.13622354 0.60000002
11.424274 -0.13622354 0.69999999
11.424274 -0.13622354 0.80000001
11.424274 -0.13622354 0.89999998
11.424274 -0.13622354 1
11.424274 -0.13622354 1.1
11.424274 -0.13622354 1.2
11.424274 -0.13622354 1.3
11.424274 -0.13622354 1.4
11.424274 -0.13622354 1.5
11.424274 -0.13622354 1.6
11.424274 -0.13622354 1.7
11.424274 -0.13622354 1.8
11.424274 -0.13622354 1.9
11.424274 -0.13622354 2
11.424274 -0.13622354 2.0999999
11.424274 -0.13622354 2.2
11.424274 -0.13622354 2.3
11.424274 -0.13622354 2.4000001
11.424274 -0.13622354 2.5
11.424274 -0.13622354 2.5999999
11.424274 -0.13622354 2.7
11.424274 -0.13622354 2.8
11.424274 -0.13622354 2.9000001
11.424274 -0.13622354 3
11.424274 -0.13622354 3.0999999
11.424274 -0.13622354 3.2
11.424274 -0.13622354 3.3
11.424274 -0.13622354 3.4000001
11.424274 -0.13622354 3.5
11.424274 -0.13622354 3.5999999
11.424274 -0.13622354 3.7
11.424274 -0.13622354 3.8
11.424274 -0.13622354 3.9000001
11.424274 -0.13622354 4
11.424274 -0.13622354 4.0999999
11.424274 -0.13622354 4.1999998
11.424274 -0.13622354 4.3000002
11.424274 -0.13622354 4.4000001
11.424274 -0.13622354 4.5
11.424274 -0.13622354 4.5999999
11.424274 -0.13622354 4.6999998
11.424274 -0.13622354 4.8000002
11.424274 -0.13622354 4.9000001
11.424274 -0.13622354 5
11.424274 -0.13622354 5.0999999
11.424274 -0.13622354 5.1999998
11.424274 -0.13622354 5.3000002
11.424274 -0.13622354 5.4000001
11.424274 -0.13622354 5.5
11.324764 0.16393927 -0.5
11.324764 0.16393927 -0.40000001
11.324764 0.16393927 -0.30000001
11.324764 0.16393927 -0.2
11.324764 0.16393927 -0.1
11.324764 0.16393927 -2.7755576e-17
11.324764 0.16393927 0.1
11.324764 0.16393927 0.2
11.324764 0.16393927 0.30000001
11.324764 0.16393927 0.40000001
11.324764 0.16393927 0.5
11.324764 0.16393927 0.60000002
11.324764 0.16393927 0.69999999
11.324764 0.16393927 0.80000001
11.324764 0.16393927 0.89999998
11.324764 0.16393927 1
11.324764 0.16393927 1.1
11.324764 0.16393927 1.2
11.324764 0.16393927 1.3
11.324764 0.16393927 1.4
11.324764 0.16393927 1.5
11.324764 0.16393927 1.6
11.324764 0.16393927 1.7
11.324764 0.16393927 1.8
11.324764 0.16393927 1.9
11.324764 0.16393927 2
11.324764 0.16393927 2.0999999
11.324764 0.16393927 2.2
11.324764 0.16393927 2.3
11.324764 0.16393927 2.4000001
11.324764 0.16393927 2.5
11.324764 0.16393927 2.5999999
11.324764 0.16393927 2.7
11.324764 0.16393927 2.8
11.324764 0.16393927 2.9000001
11.324764 0.16393927 3
11.324764 0.16393927 3.0999999
11.324764 0.16393927 3.2
11.324764 0.16393927 3.3
11.324764 0.16393927 3.4000001
11.324764 0.16393927 3.5
11.324764 0.16393927 3.5999999
11.324764 0.16393927 3.7
11.324764 0.16393927 3.8
11.324764 0.16393927 3.9000001
11.324764 0.16393927 4
11.324764 0.16393927 4.0999999
11.324764 0.16393927 4.1999998
11.324764 0.16393927 4.3000002
11.324764 0.16393927 4.4000001
11.324764 0.16393927 4.5
11.324764 0.16393927 4.5999999
11.324764 0.16393927 4.6999998
11.324764 0.16393927 4.8000002
11.324764 0.16393927 4.9000001
11.324764 0.16393927 5
11.324764 0.16393927 5.0999999
11.324764 0.16393927 5.1999998
11.324764 0.16393927 5.3000002
11.324764 0.16393927 5.4000001
11.324764 0.16393927 5.5
11.324601 0.0639394 -0.5
11.324601 0.0639394 -0.40000001
11.324601 0.0639394 -0.30000001
11.324601 0.0639394 -0.2
11.324601 0.0639394 -0.1
11.324601 0.0639394 -2.7755576e-17
11.324601 0.0639394 0.1
11.324601 0.0639394 0.2
11.324601 0.0639394 0.30000001
11.324601 0.0639394 0.40000001
11.324601 0.0639394 0.5
11.324601 0.0639394 0.60000002
11.324601 0.0639394 0.69999999
11.324601 0.0639394 0.80000001
11.324601 0.0639394 0.89999998
11.324601 0.0639394 1
11.324601 0.0639394 1.1
11.324601 0.0639394 1.2
11.324601 0.0639394 1.3
11.324601 0.0639394 1.4
11.324601 0.0639394 1.5
11.324601 0.0639394 1.6
11.324601 0.0639394 1.7
11.324601 0.0639394 1.8
11.324601 0.0639394 1.9
11.324601 0.0639394 2
11.324601 0.0639394 2.0999999
11.324601 0.0639394 2.2
11.324601 0.0639394 2.3
11.324601 0.0639394 2.4000001
11.324601 0.0639394 2.5
11.324601 0.0639394 2.5999999
11.324601 0.0639394 2.7
11.324601 0.0639394 2.8
11.324601 0.0639394 2.9000001
11.324601 0.0639394 3
11.324601 0.0639394 3.0999999
11.324601 0.0639394 3.2
11.324601 0.0639394 3.3
11.324601 0.0639394 3.4000001
11.324601 0.0639394 3.5
11.324601 0.0639394 3.5999999
11.324601 0.0639394 3.7
11.324601 0.0639394 3.8
11.324601 0.0639394 3.9000001
11.324601 0.0639394 4
11.324601 0.0639394 4.0999999
11.324601 0.0639394 4.1999998
11.324601 0.0639394 4.3000002
11.324601 0.0639394 4.4000001
11.324601 0.0639394 4.5
11.324601 0.0639394 4.5999999
11.324601 0.0639394 4.6999998
11.324601 0.0639394 4.8000002
11.324601 0.0639394 4.9000001
11.324601 0.0639394 5
11.324601 0.0639394 5.0999999
11.324601 0.0639394 5.1999998
11.324601 0.0639394 5.3000002
11.324601 0.0639394 5.4000001
11.324601 0.0639394 5.5
11.324438 -0.036060467 -0.5
11.324438 -0.036060467 -0.40000001
11.324438 -0.036060467 -0.30000001
11.324438 -0.036060467 -0.2
11.324438 -0.036060467 -0.1
11.324438 -0.036060467 -2.7755576e-17
11.324438 -0.036060467 0.1
11.324438 -0.036060467 0.2
11.324438 -0.036060467 0.30000001
11.324438 -0.036060467 0.40000001
11.324438 -0.036060467 0.5
11.324438 -0.036060467 0.60000002
11.324438 -0.036060467 0.69999999
11.324438 -0.036060467 0.80000001
11.324438 -0.036060467 0.89999998
11.324438 -0.036060467 1
11.324438 -0.036060467 1.1
11.324438 -0.036060467 1.2
11.324438 -0.036060467 1.3
11.324438 -0.036060467 1.4
11.324438 -0.036060467 1.5
11.324438 -0.036060467 1.6
11.324438 -0.036060467 1.7
11.324438 -0.036060467 1.8
11.324438 -0.036060467 1.9
11.324438 -0.036060467 2
11.324438 -0.036060467 2.0999999
11.324438 -0.036060467 2.2
11.324438 -0.036060467 2.3
11.324438 -0.036060467 2.4000001
11.324438 -0.036060467 2.5
11.324438 -0.036060467 2.5999999
11.324438 -0.036060467 2.7
11.324438 -0.036060467 2.8
11.324438 -0.036060467 2.9000001
11.324438 -0.036060467 3
11.324438 -0.036060467 3.0999999
11.324438 -0.036060467 3.2
11.324438 -0.036060467 3.3
11.324438 -0.036060467 3.4000001
11.324438 -0.036060467 3.5
11.324438 -0.036060467 3.5999999
11.324438 -0.036060467 3.7
11.324438 -0.036060467 3.8
11.324438 -0.036060467 3.9000001
11.324438 -0.036060467 4
11.324438 -0.036060467 4.0999999
11.324438 -0.036060467 4.1999998
11.324438 -0.036060467 4.3000002
11.324438 -0.036060467 4.4000001
11.324438 -0.036060467 4.5
11.324438 -0.036060467 4.5999999
11.324438 -0.036060467 4.6999998
11.324438 -0.036060467 4.8000002
11.324438 -0.036060467 4.9000001
11.324438 -0.036060467 5
11.324438 -0.036060467 5.0999999
11.324438 -0.036060467 5.1999998
11.324438 -0.036060467 5.3000002
11.324438 -0.036060467 5.4000001
11.324438 -0.036060467 5.5
11.324275 -0.13606033 -0.5
11.324275 -0.13606033 -0.40000001
11.324275 -0.13606033 -0.30000001
11.324275 -0.13606033 -0.2
11.324275 -0.13606033 -0.1
11.324275 -0.13606033 -2.7755576e-17
11.324275 -0.13606033 0.1
11.324275 -0.13606033 0.2
11.324275 -0.13606033 0.30000001
11.324275 -0.13606033 0.40000001
11.324275 -0.13606033 0.5
11.324275 -0.13606033 0.60000002
11.324275 -0.13606033 0.69999999
11.324275 -0.13606033 0.80000001
11.324275 -0.13606033 0.89999998
11.324275 -0.13606033 1
11.324275 -0.13606033 1.1
11.324275 -0.13606033 1.2
11.324275 -0.13606033 1.3
11.324275 -0.13606033 1.4
11.324275 -0.13606033 1.5
11.324275 -0.13606033 1.6
11.324275 -0.13606033 1.7
11.324275 -0.13606033 1.8
11.324275 -0.13606033 1.9
11.324275 -0.13606033 2
11.324275 -0.13606033 2.0999999
11.324275 -0.13606033 2.2
11.324275 -0.13606033 2.3
11.324275 -0.13606033 2.4000001
11.324275 -0.13606033 2.5
11.324275 -0.13606033 2.5999999
11.324275 -0.13606033 2.7
11.324275 -0.13606033 2.8
11.324275 -0.13606033 2.9000001
11.324275 -0.13606033 3
11.324275 -0.13606033 3.0999999
11.324275 -0.13606033 3.2
11.324275 -0.13606033 3.3
11.324275 -0.13606033 3.4000001
11.324275 -0.13606033 3.5
11.324275 -0.13606033 3.5999999
11.324275 -0.13606033 3.7
11.324275 -0.13606033 3.8
11.324275 -0.13606033 3.9000001
11.324275 -0.13606033 4
11.324275 -0.13606033 4.0999999
11.324275 -0.13606033 4.1999998
11.324275 -0.13606033 4.3000002
11.324275 -0.13606033 4.4000001
11.324275 -0.13606033 4.5
11.324275 -0.13606033 4.5999999
11.324275 -0.13606033 4.6999998
11.324275 -0.13606033 4.8000002
11.324275 -0.13606033 4.9000001
11.324275 -0.13606033 5
11.324275 -0.13606033 5.0999999
11.324275 -0.13606033 5.1999998
11.324275 -0.13606033 5.3000002
11.324275 -0.13606033 5.4000001
11.324275 -0.13606033 5.5
11.224764 0.16410248 -0.5
11.224764 0.16410248 -0.40000001
11.224764 0.16410248 -0.30000001
11.224764 0.16410248 -0.2
11.224764 0.16410248 -0.1
11.224764 0.16410248 -2.7755576e-17
11.224764 0.16410248 0.1
11.224764 0.16410248 0.2
11.224764 0.16410248 0.30000001
11.224764 0.16410248 0.40000001
11.224764 0.16410248 0.5
11.224764 0.16410248 0.60000002
11.224764 0.16410248 0.69999999
11.224764 0.16410248 0.80000001
11.224764 0.16410248 0.89999998
11.224764 0.16410248 1
11.224764 0.16410248 1.1
11.224764 0.16410248 1.2
11.224764 0.16410248 1.3
11.224764 0.16410248 1.4
11.224764 0.16410248 1.5
11.224764 0.16410248 1.6
11.224764 0.16410248 1.7
11.224764 0.16410248 1.8
11.224764 0.16410248 1.9
11.224764 0.16410248 2
11.224764 0.16410248 2.0999999
11.224764 0.16410248 2.2
11.224764 0.16410248 2.3
11.224764 0.16410248 2.4000001
11.224764 0.16410248 2.5
11.224764 0.16410248 2.5999999
11.224764 0.16410248 2.7
11.224764 0.16410248 2.8
11.224764 0.16410248 2.9000001
11.224764 0.16410248 3
11.224764 0.16410248 3.0999999
11.224764 0.16410248 3.2
11.224764 0.16410248 3.3
11.224764 0.16410248 3.4000001
11.224764 0.16410248 3.5
11.224764 0.16410248 3.5999999
11.224764 0.16410248 3.7
11.224764 0.16410248 3.8
11.224764 0.16410248 3.9000001
11.224764 0.16410248 4
11.224764 0.16410248 4.0999999
11.224764 0.16410248 4.1999998
11.224764 0.16410248 4.3000002
11.224764 0.16410248 4.4000001
11.224764 0.16410248 4.5
11.224764 0.16410248 4.5999999
11.224764 0.16410248 4.6999998
11.224764 0.16410248 4.8000002
11.224764 0.16410248 4.9000001
11.224764 0.16410248 5
11.224764 0.16410248 5.0999999
11.224764 0.16410248 5.1999998
11.224764 0.16410248 5.3000002
11.224764 0.16410248 5.4000001
11.224764 0.16410248 5.5
11.224601 0.064102605 -0.5
11.224601 0.064102605 -0.40000001
11.224601 0.064102605 -0.30000001
11.224601 0.064102605 -0.2
11.224601 0.064102605 -0.1
11.224601 0.064102605 -2.7755576e-17
11.224601 0.064102605 0.1
11.224601 0.064102605 0.2
11.224601 0.064102605 0.30000001
11.224601 0.064102605 0.40000001
11.224601 0.064102605 0.5
11.224601 0.064102605 0.60000002
11.224601 0.064102605 0.69999999
11.224601 0.064102605 0.80000001
11.224601 0.064102605 0.89999998
11.224601 0.064102605 1
11.224601 0.064102605 1.1
11.224601 0.064102605 1.2
11.224601 0.064102605 1.3
11.224601 0.064102605 1.4
11.224601 0.064102605 1.5
11.224601 0.064102605 1.6
11.224601 0.064102605 1.7
11.224601 0.064102605 1.8
11.224601 0.064102605 1.9
11.224601 0.064102605 2
11.224601 0.064102605 2.0999999
11.224601 0.064102605 2.2
11.224601 0.064102605 2.3
11.224601 0.064102605 2.4000001
11.224601 0.064102605 2.5
11.224601 0.064102605 2.5999999
11.224601 0.064102605 2.7
11.224601 0.064102605 2.8
11.224601 0.064102605 2.9000001
11.224601 0.064102605 3
11.224601 0.064102605 3.0999999
11.224601 0.064102605 3.2
11.224601 0.064102605 3.3
11.224601 0.064102605 3.4000001
11.224601 0.064102605 3.5
11.224601 0.064102605 3.5999999
11.224601 0.064102605 3.7
11.224601 0.064102605 3.8
11.224601 0.064102605 3.9000001
11.224601 0.064102605 4
11.224601 0.064102605 4.0999999
11.224601 0.064102605 4.1999998
11.224601 0.064102605 4.3000002
11.224601 0.064102605 4.4000001
11.224601 0.064102605 4.5
11.224601 0.064102605 4.5999999
11.224601 0.064102605 4.6999998
11.224601 0.064102605 4.8000002
11.224601 0.064102605 4.9000001
11.224601 0.064102605 5
11.224601 0.064102605 5.0999999
11.224601 0.064102605 5.1999998
11.224601 0.064102605 5.3000002
11.224601 0.064102605 5.4000001
11.224601 0.064102605 5.5
11.224438 -0.035897262 -0.5
11.224438 -0.035897262 -0.40000001
11.224438 -0.035897262 -0.30000001
11.224438 -0.035897262 -0.2
11.224438 -0.035897262 -0.1
11.224438 -0.035897262 -2.7755576e-17
11.224438 -0.035897262 0.1
11.224438 -0.035897262 0.2
11.224438 -0.035897262 0.30000001
11.224438 -0.035897262 0.40000001
11.224438 -0.035897262 0.5
11.224438 -0.035897262 0.60000002
11.224438 -0.035897262 0.69999999
11.224438 -0.035897262 0.80000001
11.224438 -0.035897262 0.89999998
11.224438 -0.035897262 1
11.224438 -0.035897262 1.1
11.224438 -0.035897262 1.2
11.224438 -0.035897262 1.3
11.224438 -0.035897262 1.4
11.224438 -0.035897262 1.5
11.224438 -0.035897262 1.6
11.224438 -0.035897262 1.7
11.224438 -0.035897262 1.8
11.224438 -0.035897262 1.9
11.224438 -0.035897262 2
11.224438 -0.035897262 2.0999999
11.224438 -0.035897262 2.2
11.224438 -0.035897262 2.3
11.224438 -0.035897262 2.4000001
11.224438 -0.035897262 2.5
11.224438 -0.035897262 2.5999999
11.224438 -0.035897262 2.7
11.224438 -0.035897262 2.8
11.224438 -0.035897262 2.9000001
11.224438 -0.035897262 3
11.224438 -0.035897262 3.0999999
11.224438 -0.035897262 3.2
11.224438 -0.035897262 3.3
11.224438 -0.035897262 3.4000001
11.224438 -0.035897262 3.5
11.224438 -0.035897262 3.5999999
11.224438 -0.035897262 3.7
11.224438 -0.035897262 3.8
11.224438 -0.035897262 3.9000001
11.224438 -0.035897262 4
11.224438 -0.035897262 4.0999999
11.224438 -0.035897262 4.1999998
11.224438 -0.035897262 4.3000002
11.224438 -0.035897262 4.4000001
11.224438 -0.035897262 4.5
11.224438 -0.035897262 4.5999999
11.224438 -0.035897262 4.6999998
11.224438 -0.035897262 4.8000002
11.224438 -0.035897262 4.9000001
11.224438 -0.035897262 5
11.224438 -0.035897262 5.0999999
11.224438 -0.035897262 5.1999998
11.224438 -0.035897262 5.3000002
11.224438 -0.035897262 5.4000001
11.224438 -0.035897262 5.5
11.224275 -0.13589713 -0.5
11.224275 -0.13589713 -0.40000001
11.224275 -0.13589713 -0.30000001
11.224275 -0.13589713 -0.2
11.224275 -0.13589713 -0.1
11.224275 -0.13589713 -2.7755576e-17
11.224275 -0.13589713 0.1
11.224275 -0.13589713 0.2
11.224275 -0.13589713 0.30000001
11.224275 -0.13589713 0.40000001
11.224275 -0.13589713 0.5
11.224275 -0.13589713 0.60000002
11.224275 -0.13589713 0.69999999
11.224275 -0.13589713 0.80000001
11.224275 -0.13589713 0.89999998
11.224275 -0.13589713 1
11.224275 -0.13589713 1.1
11.224275 -0.13589713 1.2
11.224275 -0.13589713 1.3
11.224275 -0.13589713 1.4
11.224275 -0.13589713 1.5
11.224275 -0.13589713 1.6
11.224275 -0.13589713 1.7
11.224275 -0.13589713 1.8
11.224275 -0.13589713 1.9
11.224275 -0.13589713 2
11.224275 -0.13589713 2.0999999
11.224275 -0.13589713 2.2
11.224275 -0.13589713 2.3
11.224275 -0.13589713 2.4000001
11.224275 -0.13589713 2.5
11.224275 -0.13589713 2.5999999
11.224275 -0.13589713 2.7
11.224275 -0.13589713 2.8
11.224275 -0.13589713 2.9000001
11.224275 -0.13589713 3
11.224275 -0.13589713 3.0999999
11.224275 -0.13589713 3.2
11.224275 -0.13589713 3.3
11.224275 -0.13589713 3.4000001
11.224275 -0.13589713 3.5
11.224275 -0.13589713 3.5999999
11.224275 -0.13589713 3.7
11.224275 -0.13589713 3.8
11.224275 -0.13589713 3.9000001
11.224275 -0.13589713 4
11.224275 -0.13589713 4.0999999
11.224275 -0.13589713 4.1999998
11.224275 -0.13589713 4.3000002
11.224275 -0.13589713 4.4000001
11.224275 -0.13589713 4.5
11.224275 -0.13589713 4.5999999
11.224275 -0.13589713 4.6999998
11.224275 -0.13589713 4.8000002
11.224275 -0.13589713 4.9000001
11.224275 -0.13589713 5
11.224275 -0.13589713 5.0999999
11.224275 -0.13589713 5.1999998
11.224275 -0.13589713 5.3000002
11.224275 -0.13589713 5.4000001
11.224275 -0.13589713 5.5
11.124764 0.16426568 -0.5
11.124764 0.16426568 -0.40000001
11.124764 0.16426568 -0.30000001
11.124764 0.16426568 -0.2
11.124764 0.16426568 -0.1
11.124764 0.16426568 -2.7755576e-17
11.124764 0.16426568 0.1
11.124764 0.16426568 0.2
11.124764 0.16426568 0.30000001
11.124764 0.16426568 0.40000001
11.124764 0.16426568 0.5
11.124764 0.16426568 0.60000002
11.124764 0.16426568 0.69999999
11.124764 0.16426568 0.80000001
11.124764 0.16426568 0.89999998
11.124764 0.16426568 1
11.124764 0.16426568 1.1
11.124764 0.16426568 1.2
11.124764 0.16426568 1.3
11.124764 0.16426568 1.4
11.124764 0.16426568 1.5
11.124764 0.16426568 1.6
11.124764 0.16426568 1.7
11.124764 0.16426568 1.8
11.124764 0.16426568 1.9
11.124764 0.16426568 2
11.124764 0.16426568 2.0999999
11.124764 0.16426568 2.2
11.124764 0.16426568 2.3
11.124764 0.16426568 2.4000001
11.124764 0.16426568 2.5
11.124764 0.16426568 2.5999999
11.124764 0.16426568 2.7
11.124764 0.16426568 2.8
11.124764 0.16426568 2.9000001
11.124764 0.16426568 3
11.124764 0.16426568 3.0999999
11.124764 0.16426568 3.2
11.124764 0.16426568 3.3
11.124764 0.16426568 3.4000001
11.124764 0.16426568 3.5
11.124764 0.16426568 3.5999999
11.124764 0.16426568 3.7
11.124764 0.16426568 3.8
11.124764 0.16426568 3.9000001
11.124764 0.16426568 4
11.124764 0.16426568 4.0999999
11.124764 0.16426568 4.1999998
11.124764 0.16426568 4.3000002
11.124764 0.16426568 4.4000001
11.124764 0.16426568 4.5
11.124764 0.16426568 4.5999999
11.124764 0.16426568 4.6999998
11.124764 0.16426568 4.8000002
11.124764 0.16426568 4.9000001
11.124764 0.16426568 5
11.124764 0.16426568 5.0999999
11.124764 0.16426568 5.1999998
11.124764 0.16426568 5.3000002
11.124764 0.16426568 5.4000001
11.124764 0.16426568 5.5
11.124601 0.06426581 -0.5
11.124601 0.06426581 -0.40000001
11.124601 0.06426581 -0.30000001
11.124601 0.06426581 -0.2
11.124601 0.06426581 -0.1
11.124601 0.06426581 -2.7755576e-17
11.124601 0.06426581 0.1
11.124601 0.06426581 0.2
11.124601 0.06426581 0.30000001
11.124601 0.06426581 0.40000001
11.124601 0.06426581 0.5
11.124601 0.06426581 0.60000002
11.124601 0.06426581 0.69999999
11.124601 0.06426581 0.80000001
11.124601 0.06426581 0.89999998
11.124601 0.06426581 1
11.124601 0.06426581 1.1
11.124601 0.06426581 1.2
11.124601 0.06426581 1.3
11.124601 0.06426581 1.4
11.124601 0.06426581 1.5
11.124601 0.06426581 1.6
11.124601 0.06426581 1.7
11.124601 0.06426581 1.8
11.124601 0.06426581 1.9
11.124601 0.06426581 2
11.124601 0.06426581 2.0999999
11.124601 0.06426581 2.2
11.124601 0.06426581 2.3
11.124601 0.06426581 2.4000001
11.124601 0.06426581 2.5
11.124601 0.06426581 2.5999999
11.124601 0.06426581 2.7
11.124601 0.06426581 2.8
11.124601 0.06426581 2.9000001
11.124601 0.06426581 3
11.124601 0.06426581 3.0999999
11.124601 0.06426581 3.2
11.124601 0.06426581 3.3
11.124601 0.06426581 3.4000001
11.124601 0.06426581 3.5
11.124601 0.06426581 3.5999999
11.124601 0.06426581 3.7
11.124601 0.06426581 3.8
11.124601 0.06426581 3.9000001
11.124601 0.06426581 4
11.124601 0.06426581 4.0999999
11.124601 0.06426581 4.1999998
11.124601 0.06426581 4.3000002
11.124601 0.06426581 4.4000001
11.124601 0.06426581 4.5
11.124601 0.06426581 4.5999999
11.124601 0.06426581 4.6999998
11.124601 0.06426581 4.8000002
11.124601 0.06426581 4.9000001
11.124601 0.06426581 5
11.124601 0.06426581 5.0999999
11.124601 0.06426581 5.1999998
11.124601 0.06426581 5.3000002
11.124601 0.06426581 5.4000001
11.124601 0.06426581 5.5
11.124438 -0.035734057 -0.5
11.124438 -0.035734057 -0.40000001
11.124438 -0.035734057 -0.30000001
11.124438 -0.035734057 -0.2
11.124438 -0.035734057 -0.1
11.124438 -0.035734057 -2.7755576e-17
11.124438 -0.035734057 0.1
11.124438 -0.035734057 0.2
11.124438 -0.035734057 0.30000001
11.124438 -0.035734057 0.40000001
11.124438 -0.035734057 0.5
11.124438 -0.035734057 0.60000002
11.124438 -0.035734057 0.69999999
11.124438 -0.035734057 0.80000001
11.124438 -0.035734057 0.89999998
11.124438 -0.035734057 1
11.124438 -0.035734057 1.1
11.124438 -0.035734057 1.2
11.124438 -0.035734057 1.3
11.124438 -0.035734057 1.4
11.124438 -0.035734057 1.5
11.124438 -0.035734057 1.6
11.124438 -0.035734057 1.7
11.124438 -0.035734057 1.8
11.124438 -0.035734057 1.9
11.124438 -0.035734057 2
11.124438 -0.035734057 2.0999999
11.124438 -0.035734057 2.2
11.124438 -0.035734057 2.3
11.124438 -0.035734057 2.4000001
11.124438 -0.035734057 2.5
11.124438 -0.035734057 2.5999999
11.124438 -0.035734057 2.7
11.124438 -0.035734057 2.8
11.124438 -0.035734057 2.9000001
11.124438 -0.035734057 3
11.124438 -0.035734057 3.0999999
11.124438 -0.035734057 3.2
11.124438 -0.035734057 3.3
11.124438 -0.035734057 3.4000001
11.124438 -0.035734057 3.5
11.124438 -0.035734057 3.5999999
11.124438 -0.035734057 3.7
11.124438 -0.035734057 3.8
11.124438 -0.035734057 3.9000001
11.124438 -0.035734057 4
11.124438 -0.035734057 4.0999999
11.124438 -0.035734057 4.1999998
11.124438 -0.035734057 4.3000002
11.124438 -0.035734057 4.4000001
11.124438 -0.035734057 4.5
11.124438 -0.035734057 4.5999999
11.124438 -0.035734057 4.6999998
11.124438 -0.035734057 4.8000002
11.124438 -0.035734057 4.9000001
11.124438 -0.035734057 5
11.124438 -0.035734057 5.0999999
11.124438 -0.035734057 5.1999998
11.124438 -0.035734057 5.3000002
11.124438 -0.035734057 5.4000001
11.124438 -0.035734057 5.5
11.124275 -0.13573392 -0.5
11.124275 -0.13573392 -0.40000001
11.124275 -0.13573392 -0.30000001
11.124275 -0.13573392 -0.2
11.124275 -0.13573392 -0.1
11.124275 -0.13573392 -2.7755576e-17
11.124275 -0.13573392 0.1
11.124275 -0.13573392 0.2
11.124275 -0.13573392 0.30000001
11.124275 -0.13573392 0.40000001
11.124275 -0.13573392 0.5
11.124275 -0.13573392 0.60000002
11.124275 -0.13573392 0.69999999
11.124275 -0.13573392 0.80000001
11.124275 -0.13573392 0.89999998
11.124275 -0.13573392 1
11.124275 -0.13573392 1.1
11.124275 -0.13573392 1.2
11.124275 -0.13573392 1.3
11.124275 -0.13573392 1.4
11.124275 -0.13573392 1.5
11.124275 -0.13573392 1.6
11.124275 -0.13573392 1.7
11.124275 -0.13573392 1.8
11.124275 -0.13573392 1.9
11.124275 -0.13573392 2
11.124275 -0.13573392 2.0999999
11.124275 -0.13573392 2.2
11.124275 -0.13573392 2.3
11.124275 -0.13573392 2.4000001
11.124275 -0.13573392 2.5
11.124275 -0.13573392 2.5999999
11.124275 -0.13573392 2.7
11.124275 -0.13573392 2.8
11.124275 -0.13573392 2.9000001
11.124275 -0.13573392 3
11.124275 -0.13573392 3.0999999
11.124275 -0.13573392 3.2
11.124275 -0.13573392 3.3
11.124275 -0.13573392 3.4000001
11.124275 -0.13573392 3.5
11.124275 -0.13573392 3.5999999
11.124275 -0.13573392 3.7
11.124275 -0.13573392 3.8
11.124275 -0.13573392 3.9000001
11.124275 -0.13573392 4
11.124275 -0.13573392 4.0999999
11.124275 -0.13573392 4.1999998
11.124275 -0.13573392 4.3000002
11.124275 -0.13573392 4.4000001
11.124275 -0.13573392 4.5
11.124275 -0.13573392 4.5999999
11.124275 -0.13573392 4.6999998
11.124275 -0.13573392 4.8000002
11.124275 -0.13573392 4.9000001
11.124275 -0.13573392 5
11.124275 -0.13573392 5.0999999
11.124275 -0.13573392 5.1999998
11.124275 -0.13573392 5.3000002
11.124275 -0.13573392 5.4000001
11.124275 -0.13573392 5.5
11.024765 0.16442887 -0.5
11.024765 0.16442887 -0.40000001
11.024765 0.16442887 -0.30000001
11.024765 0.16442887 -0.2
11.024765 0.16442887 -0.1
11.024765 0.16442887 -2.7755576e-17
11.024765 0.16442887 0.1
11.024765 0.16442887 0.2
11.024765 0.16442887 0.30000001
11.024765 0.16442887 0.40000001
11.024765 0.16442887 0.5
11.024765 0.16442887 0.60000002
11.024765 0.16442887 0.69999999
11.024765 0.16442887 0.80000001
11.024765 0.16442887 0.89999998
11.024765 0.16442887 1
11.024765 0.16442887 1.1
11.024765 0.16442887 1.2
11.024765 0.16442887 1.3
11.024765 0.16442887 1.4
11.024765 0.16442887 1.5
11.024765 0.16442887 1.6
11.024765 0.16442887 1.7
11.024765 0.16442887 1.8
11.024765 0.16442887 1.9
11.024765 0.16442887 2
11.024765 0.16442887 2.0999999
11.024765 0.16442887 2.2
11.024765 0.16442887 2.3
11.024765 0.16442887 2.4000001
11.024765 0.16442887 2.5
11.024765 0.16442887 2.5999999
11.024765 0.16442887 2.7
11.024765 0.16442887 2.8
11.024765 0.16442887 2.9000001
11.024765 0.16442887 3
11.024765 0.16442887 3.0999999
11.024765 0.16442887 3.2
11.024765 0.16442887 3.3
11.024765 0.16442887 3.4000001
11.024765 0.16442887 3.5
11.024765 0.16442887 3.5999999
11.024765 0.16442887 3.7
11.024765 0.16442887 3.8
11.024765 0.16442887 3.9000001
11.024765 0.16442887 4
11.024765 0.16442887 4.0999999
11.024765 0.16442887 4.1999998
11.024765 0.16442887 4.3000002
11.024765 0.16442887 4.4000001
11.024765 0.16442887 4.5
11.024765 0.16442887 4.5999999
11.024765 0.16442887 4.6999998
11.024765 0.16442887 4.8000002
11.024765 0.16442887 4.9000001
11.024765 0.16442887 5
11.024765 0.16442887 5.0999999
11.024765 0.16442887 5.1999998
11.024765 0.16442887 5.3000002
11.024765 0.16442887 5.4000001
11.024765 0.16442887 5.5
11.024601 0.064429015 -0.5
11.024601 0.064429015 -0.40000001
11.024601 0.064429015 -0.30000001
11.024601 0.064429015 -0.2
11.024601 0.064429015 -0.1
11.024601 0.064429015 -2.7755576e-17
11.024601 0.064429015 0.1
11.024601 0.064429015 0.2
11.024601 0.064429015 0.30000001
11.024601 0.064429015 0.40000001
11.024601 0.064429015 0.5
11.024601 0.064429015 0.60000002
11.024601 0.064429015 0.69999999
11.024601 0.064429015 0.80000001
11.024601 0.064429015 0.89999998
11.024601 0.064429015 1
11.024601 0.064429015 1.1
11.024601 0.064429015 1.2
11.024601 0.064429015 1.3
11.024601 0.064429015 1.4
11.024601 0.064429015 1.5
11.024601 0.064429015 1.6
11.024601 0.064429015 1.7
11.024601 0.064429015 1.8
11.024601 0.064429015 1.9
11.024601 0.064429015 2
11.024601 0.064429015 2.0999999
11.024601 0.064429015 2.2
11.024601 0.064429015 2.3
11.024601 0.064429015 2.4000001
11.024601 0.064429015 2.5
11.024601 0.064429015 2.5999999
11.024601 0.064429015 2.7
11.024601 0.064429015 2.8
11.024601 0.064429015 2.9000001
11.024601 0.064429015 3
11.024601 0.064429015 3.0999999
11.024601 0.064429015 3.2
11.024601 0.064429015 3.3
11.024601 0.064429015 3.4000001
11.024601 0.064429015 3.5
11.024601 0.064429015 3.5999999
11.024601 0.064429015 3.7
11.024601 0.064429015 3.8
11.024601 0.064429015 3.9000001
11.024601 0.064429015 4
11.024601 0.064429015 4.0999999
11.024601 0.064429015 4.1999998
11.024601 0.064429015 4.3000002
11.024601 0.064429015 4.4000001
11.024601 0.064429015 4.5
11.024601 0.064429015 4.5999999
11.024601 0.064429015 4.6999998
11.024601 0.064429015 4.8000002
11.024601 0.064429015 4.9000001
11.024601 0.064429015 5
11.024601 0.064429015 5.0999999
11.024601 0.064429015 5.1999998
11.024601 0.064429015 5.3000002
11.024601 0.064429015 5.4000001
11.024601 0.064429015 5.5
11.024438 -0.035570852 -0.5
11.024438 -0.035570852 -0.40000001
11.024438 -0.035570852 -0.30000001
11.024438 -0.035570852 -0.2
11.024438 -0.035570852 -0.1
11.024438 -0.035570852 -2.7755576e-17
11.024438 -0.035570852 0.1
11.024438 -0.035570852 0.2
11.024438 -0.035570852 0.30000001
11.024438 -0.035570852 0.40000001
11.024438 -0.035570852 0.5
11.024438 -0.035570852 0.60000002
11.024438 -0.035570852 0.69999999
11.024438 -0.035570852 0.80000001
11.024438 -0.035570852 0.89999998
11.024438 -0.035570852 1
11.024438 -0.035570852 1.1
11.024438 -0.035570852 1.2
11.024438 -0.035570852 1.3
11.024438 -0.035570852 1.4
11.024438 -0.035570852 1.5
11.024438 -0.035570852 1.6
11.024438 -0.035570852 1.7
11.024438 -0.035570852 1.8
11.024438 -0.035570852 1.9
11.024438 -0.035570852 2
11.024438 -0.035570852 2.0999999
11.024438 -0.035570852 2.2
11.024438 -0.035570852 2.3
11.024438 -0.035570852 2.4000001
11.024438 -0.035570852 2.5
11.024438 -0.035570852 2.5999999
11.024438 -0.035570852 2.7
11.024438 -0.035570852 2.8
11.024438 -0.035570852 2.9000001
11.024438 -0.035570852 3
11.024438 -0.035570852 3.0999999
11.024438 -0.035570852 3.2
11.024438 -0.035570852 3.3
11.024438 -0.035570852 3.4000001
11.024438 -0.035570852 3.5
11.024438 -0.035570852 3.5999999
11.024438 -0.035570852 3.7
11.024438 -0.035570852 3.8
11.024438 -0.035570852 3.9000001
11.024438 -0.035570852 4
11.024438 -0.035570852 4.0999999
11.024438 -0.035570852 4.1999998
11.024438 -0.035570852 4.3000002
11.024438 -0.035570852 4.4000001
11.024438 -0.035570852 4.5
11.024438 -0.035570852 4.5999999
11.024438 -0.035570852 4.6999998
11.024438 -0.035570852 4.8000002
11.024438 -0.035570852 4.9000001
11.024438 -0.035570852 5
11.024438 -0.035570852 5.0999999
11.024438 -0.035570852 5.1999998
11.024438 -0.035570852 5.3000002
11.024438 -0.035570852 5.4000001
11.024438 -0.035570852 5.5
11.024275 -0.13557072 -0.5
11.024275 -0.13557072 -0.40000001
11.024275 -0.13557072 -0.30000001
11.024275 -0.13557072 -0.2
11.024275 -0.13557072 -0.1
11.024275 -0.13557072 -2.7755576e-17
11.024275 -0.13557072 0.1
11.024275 -0.13557072 0.2
11.024275 -0.13557072 0.30000001
11.024275 -0.13557072 0.40000001
11.024275 -0.13557072 0.5
11.024275 -0.13557072 0.60000002
11.024275 -0.13557072 0.69999999
11.024275 -0.13557072 0.80000001
11.024275 -0.13557072 0.89999998
11.024275 -0.13557072 1
11.024275 -0.13557072 1.1
11.024275 -0.13557072 1.2
11.024275 -0.13557072 1.3
11.024275 -0.13557072 1.4
11.024275 -0.13557072 1.5
11.024275 -0.13557072 1.6
11.024275 -0.13557072 1.7
11.024275 -0.13557072 1.8
11.024275 -0.13557072 1.9
11.024275 -0.13557072 2
11.024275 -0.13557072 2.0999999
11.024275 -0.13557072 2.2
11.024275 -0.13557072 2.3
11.024275 -0.13557072 2.4000001
11.024275 -0.13557072 2.5
11.024275 -0.13557072 2.5999999
11.024275 -0.13557072 2.7
11.024275 -0.13557072 2.8
11.024275 -0.13557072 2.9000001
11.024275 -0.13557072 3
11.024275 -0.13557072 3.0999999
11.024275 -0.13557072 3.2
11.024275 -0.13557072 3.3
11.024275 -0.13557072 3.4000001
11.024275 -0.13557072 3.5
11.024275 -0.13557072 3.5999999
11.024275 -0.13557072 3.7
11.024275 -0.13557072 3.8
11.024275 -0.13557072 3.9000001
11.024275 -0.13557072 4
11.024275 -0.13557072 4.0999999
11.024275 -0.13557072 4.1999998
11.024275 -0.13557072 4.3000002
11.024275 -0.13557072 4.4000001
11.024275 -0.13557072 4.5
11.024275 -0.13557072 4.5999999
11.024275 -0.13557072 4.6999998
11.024275 -0.13557072 4.8000002
11.024275 -0.13557072 4.9000001
11.024275 -0.13557072 5
11.024275 -0.13557072 5.0999999
11.024275 -0.13557072 5.1999998
11.024275 -0.13557072 5.3000002
11.024275 -0.13557072 5.4000001
11.024275 -0.13557072 5.5
10.924765 0.16459209 -0.5
10.924765 0.16459209 -0.40000001
10.924765 0.16459209 -0.30000001
10.924765 0.16459209 -0.2
10.924765 0.16459209 -0.1
10.924765 0.16459209 -2.7755576e-17
10.924765 0.16459209 0.1
10.924765 0.16459209 0.2
10.924765 0.16459209 0.30000001
10.924765 0.16459209 0.40000001
10.924765 0.16459209 0.5
10.924765 0.16459209 0.60000002
10.924765 0.16459209 0.69999999
10.924765 0.16459209 0.80000001
10.924765 0.16459209 0.89999998
10.924765 0.16459209 1
10.924765 0.16459209 1.1
10.924765 0.16459209 1.2
10.924765 0.16459209 1.3
10.924765 0.16459209 1.4
10.924765 0.16459209 1.5
10.924765 0.16459209 1.6
10.924765 0.16459209 1.7
10.924765 0.16459209 1.8
10.924765 0.16459209 1.9
10.924765 0.16459209 2
10.924765 0.16459209 2.0999999
10.924765 0.16459209 2.2
10.924765 0.16459209 2.3
10.924765 0.16459209 2.4000001
10.924765 0.16459209 2.5
10.924765 0.16459209 2.5999999
10.924765 0.16459209 2.7
10.924765 0.16459209 2.8
10.924765 0.16459209 2.9000001
10.924765 0.16459209 3
10.924765 0.16459209 3.0999999
10.924765 0.16459209 3.2
10.924765 0.16459209 3.3
10.924765 0.16459209 3.4000001
10.924765 0.16459209 3.5
10.924765 0.16459209 3.5999999
10.924765 0.16459209 3.7
10.924765 0.16459209 3.8
10.924765 0.16459209 3.9000001
10.924765 0.16459209 4
10.924765 0.16459209 4.0999999
10.924765 0.16459209 4.1999998
10.924765 0.16459209 4.3000002
10.924765 0.16459209 4.4000001
10.924765 0.16459209 4.5
10.924765 0.16459209 4.5999999
10.924765 0.16459209 4.6999998
10.924765 0.16459209 4.8000002
10.924765 0.16459209 4.9000001
10.924765 0.16459209 5
10.924765 0.16459209 5.0999999
10.924765 0.16459209 5.1999998
10.924765 0.16459209 5.3000002
10.924765 0.16459209 5.4000001
10.924765 0.16459209 5.5
10.924602 0.06459222 -0.5
10.924602 0.06459222 -0.40000001
10.924602 0.06459222 -0.30000001
10.924602 0.06459222 -0.2
10.924602 0.06459222 -0.1
10.924602 0.06459222 -2.7755576e-17
10.924602 0.06459222 0.1
10.924602 0.06459222 0.2
10.924602 0.06459222 0.30000001
10.924602 0.06459222 0.40000001
10.924602 0.06459222 0.5
10.924602 0.06459222 0.60000002
10.924602 0.06459222 0.69999999
10.924602 0.06459222 0.80000001
10.924602 0.06459222 0.89999998
10.924602 0.06459222 1
10.924602 0.06459222 1.1
10.924602 0.06459222 1.2
10.924602 0.06459222 1.3
10.924602 0.06459222 1.4
10.924602 0.06459222 1.5
10.924602 0.06459222 1.6
10.924602 0.06459222 1.7
10.924602 0.06459222 1.8
10.924602 0.06459222 1.9
10.924602 0.06459222 2
10.924602 0.06459222 2.0999999
10.924602 0.06459222 2.2
10.924602 0.06459222 2.3
10.924602 0.06459222 2.4000001
10.924602 0.06459222 2.5
10.924602 0.06459222 2.5999999
10.924602 0.06459222 2.7
10.924602 0.06459222 2.8
10.924602 0.06459222 2.9000001
10.924602 0.06459222 3
10.924602 0.06459222 3.0999999
10.924602 0.06459222 3.2
10.924602 0.06459222 3.3
10.924602 0.06459222 3.4000001
10.924602 0.06459222 3.5
10.924602 0.06459222 3.5999999
10.924602 0.06459222 3.7
10.924602 0.06459222 3.8
10.924602 0.06459222 3.9000001
10.924602 0.06459222 4
10.924602 0.06459222 4.0999999
10.924602 0.06459222 4.1999998
10.924602 0.06459222 4.3000002
10.924602 0.06459222 4.4000001
10.924602 0.06459222 4.5
10.924602 0.06459222 4.5999999
10.924602 0.06459222 4.6999998
10.924602 0.06459222 4.8000002
10.924602 0.06459222 4.9000001
10.924602 0.06459222 5
10.924602 0.06459222 5.0999999
10.924602 0.06459222 5.1999998
10.924602 0.06459222 5.3000002
10.924602 0.06459222 5.4000001
10.924602 0.06459222 5.5
10.924438 -0.035407647 -0.5
10.924438 -0.035407647 -0.40000001
10.924438 -0.035407647 -0.30000001
10.924438 -0.035407647 -0.2
10.924438 -0.035407647 -0.1
10.924438 -0.035407647 -2.7755576e-17
10.924438 -0.035407647 0.1
10.924438 -0.035407647 0.2
10.924438 -0.035407647 0.30000001
10.924438 -0.035407647 0.40000001
10.924438 -0.035407647 0.5
10.924438 -0.035407647 0.60000002
10.924438 -0.035407647 0.69999999
10.924438 -0.035407647 0.80000001
10.924438 -0.035407647 0.89999998
10.924438 -0.035407647 1
10.924438 -0.035407647 1.1
10.924438 -0.035407647 1.2
10.924438 -0.035407647 1.3
10.924438 -0.035407647 1.4
10.924438 -0.035407647 1.5
10.924438 -0.035407647 1.6
10.924438 -0.035407647 1.7
10.924438 -0.035407647 1.8
10.924438 -0.035407647 1.9
10.924438 -0.035407647 2
10.924438 -0.035407647 2.0999999
10.924438 -0.035407647 2.2
10.924438 -0.035407647 2.3
10.924438 -0.035407647 2.4000001
10.924438 -0.035407647 2.5
10.924438 -0.035407647 2.5999999
10.924438 -0.035407647 2.7
10.924438 -0.035407647 2.8
10.924438 -0.035407647 2.9000001
10.924438 -0.035407647 3
10.924438 -0.035407647 3.0999999
10.924438 -0.035407647 3.2
10.924438 -0.035407647 3.3
10.924438 -0.035407647 3.4000001
10.924438 -0.035407647 3.5
10.924438 -0.035407647 3.5999999
10.924438 -0.035407647 3.7
10.924438 -0.035407647 3.8
10.924438 -0.035407647 3.9000001
10.924438 -0.035407647 4
10.924438 -0.035407647 4.0999999
10.924438 -0.035407647 4.1999998
10.924438 -0.035407647 4.3000002
10.924438 -0.035407647 4.4000001
10.924438 -0.035407647 4.5
10.924438 -0.035407647 4.5999999
10.924438 -0.035407647 4.6999998
10.924438 -0.035407647 4.8000002
10.924438 -0.035407647 4.9000001
10.924438 -0.035407647 5
10.924438 -0.035407647 5.0999999
10.924438 -0.035407647 5.1999998
10.924438 -0.035407647 5.3000002
10.924438 -0.035407647 5.4000001
10.924438 -0.035407647 5.5
10.924275 -0.13540751 -0.5
10.924275 -0.13540751 -0.40000001
10.924275 -0.13540751 -0.30000001
10.924275 -0.13540751 -0.2
10.924275 -0.13540751 -0.1
10.924275 -0.13540751 -2.7755576e-17
10.924275 -0.13540751 0.1
10.924275 -0.13540751 0.2
10.924275 -0.13540751 0.30000001
10.924275 -0.13540751 0.40000001
10.924275 -0.13540751 0.5
10.924275 -0.13540751 0.60000002
10.924275 -0.13540751 0.69999999
10.924275 -0.13540751 0.80000001
10.924275 -0.13540751 0.89999998
10.924275 -0.13540751 1
10.924275 -0.13540751 1.1
10.924275 -0.13540751 1.2
10.924275 -0.13540751 1.3
10.924275 -0.13540751 1.4
10.924275 -0.13540751 1.5
10.924275 -0.13540751 1.6
10.924275 -0.13540751 1.7
10.924275 -0.13540751 1.8
10.924275 -0.13540751 1.9
10.924275 -0.13540751 2
10.924275 -0.13540751 2.0999999
10.924275 -0.13540751 2.2
10.924275 -0.13540751 2.3
10.924275 -0.13540751 2.4000001
10.924275 -0.13540751 2.5
10.924275 -0.13540751 2.5999999
10.924275 -0.13540751 2.7
10.924275 -0.13540751 2.8
10.924275 -0.13540751 2.9000001
10.924275 -0.13540751 3
10.924275 -0.13540751 3.0999999
10.924275 -0.13540751 3.2
10.924275 -0.13540751 3.3
10.924275 -0.13540751 3.4000001
10.924275 -0.13540751 3.5
10.924275 -0.13540751 3.5999999
10.924275 -0.13540751 3.7
10.924275 -0.13540751 3.8
10.924275 -0.13540751 3.9000001
10.924275 -0.13540751 4
10.924275 -0.13540751 4.0999999
10.924275 -0.13540751 4.1999998
10.924275 -0.13540751 4.3000002
10.924275 -0.13540751 4.4000001
10.924275 -0.13540751 4.5
10.924275 -0.13540751 4.5999999
10.924275 -0.13540751 4.6999998
10.924275 -0.13540751 4.8000002
10.924275 -0.13540751 4.9000001
10.924275 -0.13540751 5
10.924275 -0.13540751 5.0999999
10.924275 -0.13540751 5.1999998
10.924275 -0.13540751 5.3000002
10.924275 -0.13540751 5.4000001
10.924275 -0.13540751 5.5
10.824765 0.16475528 -0.5
10.824765 0.16475528 -0.40000001
10.824765 0.16475528 -0.30000001
10.824765 0.16475528 -0.2
10.824765 0.16475528 -0.1
10.824765 0.16475528 -2.7755576e-17
10.824765 0.16475528 0.1
10.824765 0.16475528 0.2
10.824765 0.16475528 0.30000001
10.824765 0.16475528 0.40000001
10.824765 0.16475528 0.5
10.824765 0.16475528 0.60000002
10.824765 0.16475528 0.69999999
10.824765 0.16475528 0.80000001
10.824765 0.16475528 0.89999998
10.824765 0.16475528 1
10.824765 0.16475528 1.1
10.824765 0.16475528 1.2
10.824765 0.16475528 1.3
10.824765 0.16475528 1.4
10.824765 0.16475528 1.5
10.824765 0.16475528 1.6
10.824765 0.16475528 1.7
10.824765 0.16475528 1.8
10.824765 0.16475528 1.9
10.824765 0.16475528 2
10.824765 0.16475528 2.0999999
10.824765 0.16475528 2.2
10.824765 0.16475528 2.3
10.824765 0.16475528 2.4000001
10.824765 0.16475528 2.5
10.824765 0.16475528 2.5999999
10.824765 0.16475528 2.7
10.824765 0.16475528 2.8
10.824765 0.16475528 2.9000001
10.824765 0.16475528 3
10.824765 0.16475528 3.0999999
10.824765 0.16475528 3.2
10.824765 0.16475528 3.3
10.824765 0.16475528 3.4000001
10.824765 0.16475528 3.5
10.824765 0.16475528 3.5999999
10.824765 0.16475528 3.7
10.824765 0.16475528 3.8
10.824765 0.16475528 3.9000001
10.824765 0.16475528 4
10.824765 0.16475528 4.0999999
10.824765 0.16475528 4.1999998
10.824765 0.16475528 4.3000002
10.824765 0.16475528 4.4000001
10.824765 0.16475528 4.5
10.824765 0.16475528 4.5999999
10.824765 0.16475528 4.6999998
10.824765 0.16475528 4.8000002
10.824765 0.16475528 4.9000001
10.824765 0.16475528 5
10.824765 0.16475528 5.0999999
10.824765 0.16475528 5.1999998
10.824765 0.16475528 5.3000002
10.824765 0.16475528 5.4000001
10.824765 0.16475528 5.5
10.824601 0.064755425 -0.5
10.824601 0.064755425 -0.40000001
10.824601 0.064755425 -0.30000001
10.824601 0.064755425 -0.2
10.824601 0.064755425 -0.1
10.824601 0.064755425 -2.7755576e-17
10.824601 0.064755425 0.1
10.824601 0.064755425 0.2
10.824601 0.064755425 0.30000001
10.824601 0.064755425 0.40000001
10.824601 0.064755425 0.5
10.824601 0.064755425 0.60000002
10.824601 0.064755425 0.69999999
10.824601 0.064755425 0.80000001
10.824601 0.064755425 0.89999998
10.824601 0.064755425 1
10.824601 0.064755425 1.1
10.824601 0.064755425 1.2
10.824601 0.064755425 1.3
10.824601 0.064755425 1.4
10.824601 0.064755425 1.5
10.824601 0.064755425 1.6
10.824601 0.064755425 1.7
10.824601 0.064755425 1.8
10.824601 0.064755425 1.9
10.824601 0.064755425 2
10.824601 0.064755425 2.0999999
10.824601 0.064755425 2.2
10.824601 0.064755425 2.3
10.824601 0.064755425 2.4000001
10.824601 0.064755425 2.5
10.824601 0.064755425 2.5999999
10.824601 0.064755425 2.7
10.824601 0.064755425 2.8
10.824601 0.064755425 2.9000001
10.824601 0.064755425 3
10.824601 0.064755425 3.0999999
10.824601 0.064755425 3.2
10.824601 0.064755425 3.3
10.824601 0.064755425 3.4000001
10.824601 0.064755425 3.5
10.824601 0.064755425 3.5999999
10.824601 0.064755425 3.7
10.824601 0.064755425 3.8
10.824601 0.064755425 3.9000001
10.824601 0.064755425 4
10.824601 0.064755425 4.0999999
10.824601 0.064755425 4.1999998
10.824601 0.064755425 4.3000002
10.824601 0.064755425 4.4000001
10.824601 0.064755425 4.5
10.824601 0.064755425 4.5999999
10.824601 0.064755425 4.6999998
10.824601 0.064755425 4.8000002
10.824601 0.064755425 4.9000001
10.824601 0.064755425 5
10.824601 0.064755425 5.0999999
10.824601 0.064755425 5.1999998
10.824601 0.064755425 5.3000002
10.824601 0.064755425 5.4000001
10.824601 0.064755425 5.5
10.824438 -0.035244443 -0.5
10.824438 -0.035244443 -0.40000001
10.824438 -0.035244443 -0.30000001
10.824438 -0.035244443 -0.2
10.824438 -0.035244443 -0.1
10.824438 -0.035244443 -2.7755576e-17
10.824438 -0.035244443 0.1
10.824438 -0.035244443 0.2
10.824438 -0.035244443 0.30000001
10.824438 -0.035244443 0.40000001
10.824438 -0.035244443 0.5
10.824438 -0.035244443 0.60000002
10.824438 -0.035244443 0.69999999
10.824438 -0.035244443 0.80000001
10.824438 -0.035244443 0.89999998
10.824438 -0.035244443 1
10.824438 -0.035244443 1.1
10.824438 -0.035244443 1.2
10.824438 -0.035244443 1.3
