# .PCD v0.7 - Point Cloud Data file format
VERSION 0.7
FIELDS x y z
SIZE 4 4 4
TYPE F F F
COUNT 1 1 1
WIDTH 1957
HEIGHT 1
VIEWPOINT 0 0 0 1 0 0 0
POINTS 1957
DATA ascii
32.150002 5.5999999 1.5
32.150002 5.5999999 1.6
32.150002 5.5999999 1.7
32.150002 5.5999999 1.8
32.150002 5.5999999 1.9
32.150002 5.5999999 2
32.150002 5.5999999 2.0999999
32.150002 5.5999999 2.2
32.150002 5.5999999 2.3
32.150002 5.5999999 2.4000001
32.150002 5.5999999 2.5
32.150002 5.5999999 2.5999999
32.150002 5.5999999 2.7
32.150002 5.5999999 2.8
32.150002 5.5999999 2.9000001
32.150002 5.5999999 3
32.150002 5.5999999 3.0999999
32.150002 5.5999999 3.2
32.150002 5.5999999 3.3
32.150002 5.5999999 3.4000001
32.049999 5.5999999 -0.5
32.049999 5.5999999 -0.40000001
32.049999 5.5999999 -0.30000001
32.049999 5.5999999 -0.2
32.049999 5.5999999 -0.1
32.049999 5.5999999 -2.7755576e-17
32.049999 5.5999999 0.1
32.049999 5.5999999 0.2
32.049999 5.5999999 0.30000001
32.049999 5.5999999 0.40000001
32.049999 5.5999999 0.5
32.049999 5.5999999 0.60000002
32.049999 5.5999999 0.69999999
32.049999 5.5999999 0.80000001
32.049999 5.5999999 0.89999998
32.049999 5.5999999 1
32.049999 5.5999999 1.1
32.049999 5.5999999 1.2
32.049999 5.5999999 1.3
32.049999 5.5999999 1.4
32.049999 5.5999999 1.5
32.049999 5.5999999 1.6
32.049999 5.5999999 1.7
32.049999 5.5999999 1.8
32.049999 5.5999999 1.9
32.049999 5.5999999 2
32.049999 5.5999999 2.0999999
32.049999 5.5999999 2.2
32.049999 5.5999999 2.3
32.049999 5.5999999 2.4000001
32.049999 5.5999999 2.5
32.049999 5.5999999 2.5999999
32.049999 5.5999999 2.7
32.049999 5.5999999 2.8
32.049999 5.5999999 2.9000001
32.049999 5.5999999 3
32.049999 5.5999999 3.0999999
32.049999 5.5999999 3.2
32.049999 5.5999999 3.3
32.049999 5.5999999 3.4000001
31.950001 5.5999999 -0.5
31.950001 5.5999999 -0.40000001
31.950001 5.5999999 -0.30000001
31.950001 5.5999999 -0.2
31.950001 5.5999999 -0.1
31.950001 5.5999999 -2.7755576e-17
31.950001 5.5999999 0.1
31.950001 5.5999999 0.2
31.950001 5.5999999 0.30000001
31.950001 5.5999999 0.40000001
31.950001 5.5999999 0.5
31.950001 5.5999999 0.60000002
31.950001 5.5999999 0.69999999
31.950001 5.5999999 0.80000001
31.950001 5.5999999 0.89999998
31.950001 5.5999999 1
31.950001 5.5999999 1.1
31.950001 5.5999999 1.2
31.950001 5.5999999 1.3
31.950001 5.5999999 1.4
31.950001 5.5999999 1.5
31.950001 5.5999999 1.6
31.950001 5.5999999 1.7
31.950001 5.5999999 1.8
31.950001 5.5999999 1.9
31.950001 5.5999999 2
31.950001 5.5999999 2.0999999
31.950001 5.5999999 2.2
31.950001 5.5999999 2.3
31.950001 5.5999999 2.4000001
31.950001 5.5999999 2.5
31.950001 5.5999999 2.5999999
31.950001 5.5999999 2.7
31.950001 5.5999999 2.8
31.950001 5.5999999 2.9000001
31.950001 5.5999999 3
31.950001 5.5999999 3.0999999
31.950001 5.5999999 3.2
31.950001 5.5999999 3.3
31.950001 5.5999999 3.4000001
31.85 5.5999999 -0.5
31.85 5.5999999 -0.40000001
31.85 5.5999999 -0.30000001
31.85 5.5999999 -0.2
31.85 5.5999999 -0.1
31.85 5.5999999 -2.7755576e-17
31.85 5.5999999 0.1
31.85 5.5999999 0.2
31.85 5.5999999 0.30000001
31.85 5.5999999 0.40000001
31.85 5.5999999 0.5
31.85 5.5999999 0.60000002
31.85 5.5999999 0.69999999
31.85 5.5999999 0.80000001
31.85 5.5999999 0.89999998
31.85 5.5999999 1
31.85 5.5999999 1.1
31.85 5.5999999 1.2
31.85 5.5999999 1.3
31.85 5.5999999 1.4
31.85 5.5999999 1.5
31.85 5.5999999 1.6
31.85 5.5999999 1.7
31.85 5.5999999 1.8
31.85 5.5999999 1.9
31.85 5.5999999 2
31.85 5.5999999 2.0999999
31.85 5.5999999 2.2
31.85 5.5999999 2.3
31.85 5.5999999 2.4000001
31.85 5.5999999 2.5
31.85 5.5999999 2.5999999
31.85 5.5999999 2.7
31.85 5.5999999 2.8
31.85 5.5999999 2.9000001
31.85 5.5999999 3
31.85 5.5999999 3.0999999
31.85 5.5999999 3.2
31.85 5.5999999 3.3
31.85 5.5999999 3.4000001
32.150002 5.6999998 -0.5
32.150002 5.6999998 -0.40000001
32.150002 5.6999998 -0.30000001
32.150002 5.6999998 -0.2
32.150002 5.6999998 -0.1
32.150002 5.6999998 -2.7755576e-17
32.150002 5.6999998 0.1
32.150002 5.6999998 0.2
32.150002 5.6999998 0.30000001
32.150002 5.6999998 0.40000001
32.150002 5.6999998 0.5
32.150002 5.6999998 0.60000002
32.150002 5.6999998 0.69999999
32.150002 5.6999998 0.80000001
32.150002 5.6999998 0.89999998
32.150002 5.6999998 1
32.150002 5.6999998 1.1
32.150002 5.6999998 1.2
32.150002 5.6999998 1.3
32.150002 5.6999998 1.4
32.150002 5.6999998 1.5
32.150002 5.6999998 1.6
32.150002 5.6999998 1.7
32.150002 5.6999998 1.8
32.150002 5.6999998 1.9
32.150002 5.6999998 2
32.150002 5.6999998 2.0999999
32.150002 5.6999998 2.2
32.150002 5.6999998 2.3
32.150002 5.6999998 2.4000001
32.150002 5.6999998 2.5
32.150002 5.6999998 2.5999999
32.150002 5.6999998 2.7
32.150002 5.6999998 2.8
32.150002 5.6999998 2.9000001
32.150002 5.6999998 3
32.150002 5.6999998 3.0999999
32.150002 5.6999998 3.2
32.150002 5.6999998 3.3
32.150002 5.6999998 3.4000001
32.049999 5.6999998 -0.5
32.049999 5.6999998 -0.40000001
32.049999 5.6999998 -0.30000001
32.049999 5.6999998 -0.2
32.049999 5.6999998 -0.1
32.049999 5.6999998 -2.7755576e-17
32.049999 5.6999998 0.1
32.049999 5.6999998 0.2
32.049999 5.6999998 0.30000001
32.049999 5.6999998 0.40000001
32.049999 5.6999998 0.5
32.049999 5.6999998 0.60000002
32.049999 5.6999998 0.69999999
32.049999 5.6999998 0.80000001
32.049999 5.6999998 0.89999998
32.049999 5.6999998 1
32.049999 5.6999998 1.1
32.049999 5.6999998 1.2
32.049999 5.6999998 1.3
32.049999 5.6999998 1.4
32.049999 5.6999998 1.5
32.049999 5.6999998 1.6
32.049999 5.6999998 1.7
32.049999 5.6999998 1.8
32.049999 5.6999998 1.9
32.049999 5.6999998 2
32.049999 5.6999998 2.0999999
32.049999 5.6999998 2.2
32.049999 5.6999998 2.3
32.049999 5.6999998 2.4000001
32.049999 5.6999998 2.5
32.049999 5.6999998 2.5999999
32.049999 5.6999998 2.7
32.049999 5.6999998 2.8
32.049999 5.6999998 2.9000001
32.049999 5.6999998 3
32.049999 5.6999998 3.0999999
32.049999 5.6999998 3.2
32.049999 5.6999998 3.3
32.049999 5.6999998 3.4000001
31.950001 5.6999998 -0.5
31.950001 5.6999998 -0.40000001
31.950001 5.6999998 -0.30000001
31.950001 5.6999998 -0.2
31.950001 5.6999998 -0.1
31.950001 5.6999998 -2.7755576e-17
31.950001 5.6999998 0.1
31.950001 5.6999998 0.2
31.950001 5.6999998 0.30000001
31.950001 5.6999998 0.40000001
31.950001 5.6999998 0.5
31.950001 5.6999998 0.60000002
31.950001 5.6999998 0.69999999
31.950001 5.6999998 0.80000001
31.950001 5.6999998 0.89999998
31.950001 5.6999998 1
31.950001 5.6999998 1.1
31.950001 5.6999998 1.2
31.950001 5.6999998 1.3
31.950001 5.6999998 1.4
31.950001 5.6999998 1.5
31.950001 5.6999998 1.6
31.950001 5.6999998 1.7
31.950001 5.6999998 1.8
31.950001 5.6999998 1.9
31.950001 5.6999998 2
31.950001 5.6999998 2.0999999
31.950001 5.6999998 2.2
31.950001 5.6999998 2.3
31.950001 5.6999998 2.4000001
31.950001 5.6999998 2.5
31.950001 5.6999998 2.5999999
31.950001 5.6999998 2.7
31.950001 5.6999998 2.8
31.950001 5.6999998 2.9000001
31.950001 5.6999998 3
31.950001 5.6999998 3.0999999
31.950001 5.6999998 3.2
31.950001 5.6999998 3.3
31.950001 5.6999998 3.4000001
31.85 5.6999998 -0.5
31.85 5.6999998 -0.40000001
31.85 5.6999998 -0.30000001
31.85 5.6999998 -0.2
31.85 5.6999998 -0.1
31.85 5.6999998 -2.7755576e-17
31.85 5.6999998 0.1
31.85 5.6999998 0.2
31.85 5.6999998 0.30000001
31.85 5.6999998 0.40000001
31.85 5.6999998 0.5
31.85 5.6999998 0.60000002
31.85 5.6999998 0.69999999
31.85 5.6999998 0.80000001
31.85 5.6999998 0.89999998
31.85 5.6999998 1
31.85 5.6999998 1.1
31.85 5.6999998 1.2
31.85 5.6999998 1.3
31.85 5.6999998 1.4
31.85 5.6999998 1.5
31.85 5.6999998 1.6
31.85 5.6999998 1.7
31.85 5.6999998 1.8
31.85 5.6999998 1.9
31.85 5.6999998 2
31.85 5.6999998 2.0999999
31.85 5.6999998 2.2
31.85 5.6999998 2.3
31.85 5.6999998 2.4000001
31.85 5.6999998 2.5
31.85 5.6999998 2.5999999
31.85 5.6999998 2.7
31.85 5.6999998 2.8
31.85 5.6999998 2.9000001
31.85 5.6999998 3
31.85 5.6999998 3.0999999
31.85 5.6999998 3.2
31.85 5.6999998 3.3
31.85 5.6999998 3.4000001
32.150002 5.8000002 -0.5
32.150002 5.8000002 -0.40000001
32.150002 5.8000002 -0.30000001
32.150002 5.8000002 -0.2
32.150002 5.8000002 -0.1
32.150002 5.8000002 -2.7755576e-17
32.150002 5.8000002 0.1
32.150002 5.8000002 0.2
32.150002 5.8000002 0.30000001
32.150002 5.8000002 0.40000001
32.150002 5.8000002 0.5
32.150002 5.8000002 0.60000002
32.150002 5.8000002 0.69999999
32.150002 5.8000002 0.80000001
32.150002 5.8000002 0.89999998
32.150002 5.8000002 1
32.150002 5.8000002 1.1
32.150002 5.8000002 1.2
32.150002 5.8000002 1.3
32.150002 5.8000002 1.4
32.150002 5.8000002 1.5
32.150002 5.8000002 1.6
32.150002 5.8000002 1.7
32.150002 5.8000002 1.8
32.150002 5.8000002 1.9
32.150002 5.8000002 2
32.150002 5.8000002 2.0999999
32.150002 5.8000002 2.2
32.150002 5.8000002 2.3
32.150002 5.8000002 2.4000001
32.150002 5.8000002 2.5
32.150002 5.8000002 2.5999999
32.150002 5.8000002 2.7
32.150002 5.8000002 2.8
32.150002 5.8000002 2.9000001
32.150002 5.8000002 3
32.150002 5.8000002 3.0999999
32.150002 5.8000002 3.2
32.150002 5.8000002 3.3
32.150002 5.8000002 3.4000001
32.049999 5.8000002 -0.5
32.049999 5.8000002 -0.40000001
32.049999 5.8000002 -0.30000001
32.049999 5.8000002 -0.2
32.049999 5.8000002 -0.1
32.049999 5.8000002 -2.7755576e-17
32.049999 5.8000002 0.1
32.049999 5.8000002 0.2
32.049999 5.8000002 0.30000001
32.049999 5.8000002 0.40000001
32.049999 5.8000002 0.5
32.049999 5.8000002 0.60000002
32.049999 5.8000002 0.69999999
32.049999 5.8000002 0.80000001
32.049999 5.8000002 0.89999998
32.049999 5.8000002 1
32.049999 5.8000002 1.1
32.049999 5.8000002 1.2
32.049999 5.8000002 1.3
32.049999 5.8000002 1.4
32.049999 5.8000002 1.5
32.049999 5.8000002 1.6
32.049999 5.8000002 1.7
32.049999 5.8000002 1.8
32.049999 5.8000002 1.9
32.049999 5.8000002 2
32.049999 5.8000002 2.0999999
32.049999 5.8000002 2.2
32.049999 5.8000002 2.3
32.049999 5.8000002 2.4000001
32.049999 5.8000002 2.5
32.049999 5.8000002 2.5999999
32.049999 5.8000002 2.7
32.049999 5.8000002 2.8
32.049999 5.8000002 2.9000001
32.049999 5.8000002 3
32.049999 5.8000002 3.0999999
32.049999 5.8000002 3.2
32.049999 5.8000002 3.3
32.049999 5.8000002 3.4000001
31.950001 5.8000002 -0.5
31.950001 5.8000002 -0.40000001
31.950001 5.8000002 -0.30000001
31.950001 5.8000002 -0.2
31.950001 5.8000002 -0.1
31.950001 5.8000002 -2.7755576e-17
31.950001 5.8000002 0.1
31.950001 5.8000002 0.2
31.950001 5.8000002 0.30000001
31.950001 5.8000002 0.40000001
31.950001 5.8000002 0.5
31.950001 5.8000002 0.60000002
31.950001 5.8000002 0.69999999
31.950001 5.8000002 0.80000001
31.950001 5.8000002 0.89999998
31.950001 5.8000002 1
31.950001 5.8000002 1.1
31.950001 5.8000002 1.2
31.950001 5.8000002 1.3
31.950001 5.8000002 1.4
31.950001 5.8000002 1.5
31.950001 5.8000002 1.6
31.950001 5.8000002 1.7
31.950001 5.8000002 1.8
31.950001 5.8000002 1.9
31.950001 5.8000002 2
31.950001 5.8000002 2.0999999
31.950001 5.8000002 2.2
31.950001 5.8000002 2.3
31.950001 5.8000002 2.4000001
31.950001 5.8000002 2.5
31.950001 5.8000002 2.5999999
31.950001 5.8000002 2.7
31.950001 5.8000002 2.8
31.950001 5.8000002 2.9000001
31.950001 5.8000002 3
31.950001 5.8000002 3.0999999
31.950001 5.8000002 3.2
31.950001 5.8000002 3.3
31.950001 5.8000002 3.4000001
31.85 5.8000002 -0.5
31.85 5.8000002 -0.40000001
31.85 5.8000002 -0.30000001
31.85 5.8000002 -0.2
31.85 5.8000002 -0.1
31.85 5.8000002 -2.7755576e-17
31.85 5.8000002 0.1
31.85 5.8000002 0.2
31.85 5.8000002 0.30000001
31.85 5.8000002 0.40000001
31.85 5.8000002 0.5
31.85 5.8000002 0.60000002
31.85 5.8000002 0.69999999
31.85 5.8000002 0.80000001
31.85 5.8000002 0.89999998
31.85 5.8000002 1
31.85 5.8000002 1.1
31.85 5.8000002 1.2
31.85 5.8000002 1.3
31.85 5.8000002 1.4
31.85 5.8000002 1.5
31.85 5.8000002 1.6
31.85 5.8000002 1.7
31.85 5.8000002 1.8
31.85 5.8000002 1.9
31.85 5.8000002 2
31.85 5.8000002 2.0999999
31.85 5.8000002 2.2
31.85 5.8000002 2.3
31.85 5.8000002 2.4000001
31.85 5.8000002 2.5
31.85 5.8000002 2.5999999
31.85 5.8000002 2.7
31.85 5.8000002 2.8
31.85 5.8000002 2.9000001
31.85 5.8000002 3
31.85 5.8000002 3.0999999
31.85 5.8000002 3.2
31.85 5.8000002 3.3
31.85 5.8000002 3.4000001
32.150002 5.9000001 -0.5
32.150002 5.9000001 -0.40000001
32.150002 5.9000001 -0.30000001
32.150002 5.9000001 -0.2
32.150002 5.9000001 -0.1
32.150002 5.9000001 -2.7755576e-17
32.150002 5.9000001 0.1
32.150002 5.9000001 0.2
32.150002 5.9000001 0.30000001
32.150002 5.9000001 0.40000001
32.150002 5.9000001 0.5
32.150002 5.9000001 0.60000002
32.150002 5.9000001 0.69999999
32.150002 5.9000001 0.80000001
32.150002 5.9000001 0.89999998
32.150002 5.9000001 1
32.150002 5.9000001 1.1
32.150002 5.9000001 1.2
32.150002 5.9000001 1.3
32.150002 5.9000001 1.4
32.150002 5.9000001 1.5
32.150002 5.9000001 1.6
32.150002 5.9000001 1.7
32.150002 5.9000001 1.8
32.150002 5.9000001 1.9
32.150002 5.9000001 2
32.150002 5.9000001 2.0999999
32.150002 5.9000001 2.2
32.150002 5.9000001 2.3
32.150002 5.9000001 2.4000001
32.150002 5.9000001 2.5
32.150002 5.9000001 2.5999999
32.150002 5.9000001 2.7
32.150002 5.9000001 2.8
32.150002 5.9000001 2.9000001
32.150002 5.9000001 3
32.150002 5.9000001 3.0999999
32.150002 5.9000001 3.2
32.150002 5.9000001 3.3
32.150002 5.9000001 3.4000001
32.049999 5.9000001 -0.5
32.049999 5.9000001 -0.40000001
32.049999 5.9000001 -0.30000001
32.049999 5.9000001 -0.2
32.049999 5.9000001 -0.1
32.049999 5.9000001 -2.7755576e-17
32.049999 5.9000001 0.1
32.049999 5.9000001 0.2
32.049999 5.9000001 0.30000001
32.049999 5.9000001 0.40000001
32.049999 5.9000001 0.5
32.049999 5.9000001 0.60000002
32.049999 5.9000001 0.69999999
32.049999 5.9000001 0.80000001
32.049999 5.9000001 0.89999998
32.049999 5.9000001 1
32.049999 5.9000001 1.1
32.049999 5.9000001 1.2
32.049999 5.9000001 1.3
32.049999 5.9000001 1.4
32.049999 5.9000001 1.5
32.049999 5.9000001 1.6
32.049999 5.9000001 1.7
32.049999 5.9000001 1.8
32.049999 5.9000001 1.9
32.049999 5.9000001 2
32.049999 5.9000001 2.0999999
32.049999 5.9000001 2.2
32.049999 5.9000001 2.3
32.049999 5.9000001 2.4000001
32.049999 5.9000001 2.5
32.049999 5.9000001 2.5999999
32.049999 5.9000001 2.7
32.049999 5.9000001 2.8
32.049999 5.9000001 2.9000001
32.049999 5.9000001 3
32.049999 5.9000001 3.0999999
32.049999 5.9000001 3.2
32.049999 5.9000001 3.3
32.049999 5.9000001 3.4000001
31.950001 5.9000001 -0.5
31.950001 5.9000001 -0.40000001
31.950001 5.9000001 -0.30000001
31.950001 5.9000001 -0.2
31.950001 5.9000001 -0.1
31.950001 5.9000001 -2.7755576e-17
31.950001 5.9000001 0.1
31.950001 5.9000001 0.2
31.950001 5.9000001 0.30000001
31.950001 5.9000001 0.40000001
31.950001 5.9000001 0.5
31.950001 5.9000001 0.60000002
31.950001 5.9000001 0.69999999
31.950001 5.9000001 0.80000001
31.950001 5.9000001 0.89999998
31.950001 5.9000001 1
31.950001 5.9000001 1.1
31.950001 5.9000001 1.2
31.950001 5.9000001 1.3
31.950001 5.9000001 1.4
31.950001 5.9000001 1.5
31.950001 5.9000001 1.6
31.950001 5.9000001 1.7
31.950001 5.9000001 1.8
31.950001 5.9000001 1.9
31.950001 5.9000001 2
31.950001 5.9000001 2.0999999
31.950001 5.9000001 2.2
31.950001 5.9000001 2.3
31.950001 5.9000001 2.4000001
31.950001 5.9000001 2.5
31.950001 5.9000001 2.5999999
31.950001 5.9000001 2.7
31.950001 5.9000001 2.8
31.950001 5.9000001 2.9000001
31.950001 5.9000001 3
31.950001 5.9000001 3.0999999
31.950001 5.9000001 3.2
31.950001 5.9000001 3.3
31.950001 5.9000001 3.4000001
31.85 5.9000001 -0.5
31.85 5.9000001 -0.40000001
31.85 5.9000001 -0.30000001
31.85 5.9000001 -0.2
31.85 5.9000001 -0.1
31.85 5.9000001 -2.7755576e-17
31.85 5.9000001 0.1
31.85 5.9000001 0.2
31.85 5.9000001 0.30000001
31.85 5.9000001 0.40000001
31.85 5.9000001 0.5
31.85 5.9000001 0.60000002
31.85 5.9000001 0.69999999
31.85 5.9000001 0.80000001
31.85 5.9000001 0.89999998
31.85 5.9000001 1
31.85 5.9000001 1.1
31.85 5.9000001 1.2
31.85 5.9000001 1.3
31.85 5.9000001 1.4
31.85 5.9000001 1.5
31.85 5.9000001 1.6
31.85 5.9000001 1.7
31.85 5.9000001 1.8
31.85 5.9000001 1.9
31.85 5.9000001 2
31.85 5.9000001 2.0999999
31.85 5.9000001 2.2
31.85 5.9000001 2.3
31.85 5.9000001 2.4000001
31.85 5.9000001 2.5
31.85 5.9000001 2.5999999
31.85 5.9000001 2.7
31.85 5.9000001 2.8
31.85 5.9000001 2.9000001
31.85 5.9000001 3
31.85 5.9000001 3.0999999
31.85 5.9000001 3.2
31.85 5.9000001 3.3
31.85 5.9000001 3.4000001
32.150002 6 -0.5
32.150002 6 -0.40000001
32.150002 6 -0.30000001
32.150002 6 -0.2
32.150002 6 -0.1
32.150002 6 -2.7755576e-17
32.150002 6 0.1
32.150002 6 0.2
32.150002 6 0.30000001
32.150002 6 0.40000001
32.150002 6 0.5
32.150002 6 0.60000002
32.150002 6 0.69999999
32.150002 6 0.80000001
32.150002 6 0.89999998
32.150002 6 1
32.150002 6 1.1
32.150002 6 1.2
32.150002 6 1.3
32.150002 6 1.4
32.150002 6 1.5
32.150002 6 1.6
32.150002 6 1.7
32.150002 6 1.8
32.150002 6 1.9
32.150002 6 2
32.150002 6 2.0999999
32.150002 6 2.2
32.150002 6 2.3
32.150002 6 2.4000001
32.150002 6 2.5
32.150002 6 2.5999999
32.150002 6 2.7
32.150002 6 2.8
32.150002 6 2.9000001
32.150002 6 3
32.150002 6 3.0999999
32.150002 6 3.2
32.150002 6 3.3
32.150002 6 3.4000001
32.049999 6 -0.5
32.049999 6 -0.40000001
32.049999 6 -0.30000001
32.049999 6 -0.2
32.049999 6 -0.1
32.049999 6 -2.7755576e-17
32.049999 6 0.1
32.049999 6 0.2
32.049999 6 0.30000001
32.049999 6 0.40000001
32.049999 6 0.5
32.049999 6 0.60000002
32.049999 6 0.69999999
32.049999 6 0.80000001
32.049999 6 0.89999998
32.049999 6 1
32.049999 6 1.1
32.049999 6 1.2
32.049999 6 1.3
32.049999 6 1.4
32.049999 6 1.5
32.049999 6 1.6
32.049999 6 1.7
32.049999 6 1.8
32.049999 6 1.9
32.049999 6 2
32.049999 6 2.0999999
32.049999 6 2.2
32.049999 6 2.3
32.049999 6 2.4000001
32.049999 6 2.5
32.049999 6 2.5999999
32.049999 6 2.7
32.049999 6 2.8
32.049999 6 2.9000001
32.049999 6 3
32.049999 6 3.0999999
32.049999 6 3.2
32.049999 6 3.3
32.049999 6 3.4000001
31.950001 6 -0.5
31.950001 6 -0.40000001
31.950001 6 -0.30000001
31.950001 6 -0.2
31.950001 6 -0.1
31.950001 6 -2.7755576e-17
31.950001 6 0.1
31.950001 6 0.2
31.950001 6 0.30000001
31.950001 6 0.40000001
31.950001 6 0.5
31.950001 6 0.60000002
31.950001 6 0.69999999
31.950001 6 0.80000001
31.950001 6 0.89999998
31.950001 6 1
31.950001 6 1.1
31.950001 6 1.2
31.950001 6 1.3
31.950001 6 1.4
31.950001 6 1.5
31.950001 6 1.6
31.950001 6 1.7
31.950001 6 1.8
31.950001 6 1.9
31.950001 6 2
31.950001 6 2.0999999
31.950001 6 2.2
31.950001 6 2.3
31.950001 6 2.4000001
31.950001 6 2.5
31.950001 6 2.5999999
31.950001 6 2.7
31.950001 6 2.8
31.950001 6 2.9000001
31.950001 6 3
31.950001 6 3.0999999
31.950001 6 3.2
31.950001 6 3.3
31.950001 6 3.4000001
31.85 6 -0.5
31.85 6 -0.40000001
31.85 6 -0.30000001
31.85 6 -0.2
31.85 6 -0.1
31.85 6 -2.7755576e-17
31.85 6 0.1
31.85 6 0.2
31.85 6 0.30000001
31.85 6 0.40000001
31.85 6 0.5
31.85 6 0.60000002
31.85 6 0.69999999
31.85 6 0.80000001
31.85 6 0.89999998
31.85 6 1
31.85 6 1.1
31.85 6 1.2
31.85 6 1.3
31.85 6 1.4
31.85 6 1.5
31.85 6 1.6
31.85 6 1.7
31.85 6 1.8
31.85 6 1.9
31.85 6 2
31.85 6 2.0999999
31.85 6 2.2
31.85 6 2.3
31.85 6 2.4000001
31.85 6 2.5
31.85 6 2.5999999
31.85 6 2.7
31.85 6 2.8
31.85 6 2.9000001
31.85 6 3
31.85 6 3.0999999
31.85 6 3.2
31.85 6 3.3
31.85 6 3.4000001
32.150002 6.0999999 -0.5
32.150002 6.0999999 -0.40000001
32.150002 6.0999999 -0.30000001
32.150002 6.0999999 -0.2
32.150002 6.0999999 -0.1
32.150002 6.0999999 -2.7755576e-17
32.150002 6.0999999 0.1
32.150002 6.0999999 0.2
32.150002 6.0999999 0.30000001
32.150002 6.0999999 0.40000001
32.150002 6.0999999 0.5
32.150002 6.0999999 0.60000002
32.150002 6.0999999 0.69999999
32.150002 6.0999999 0.80000001
32.150002 6.0999999 0.89999998
32.150002 6.0999999 1
32.150002 6.0999999 1.1
32.150002 6.0999999 1.2
32.150002 6.0999999 1.3
32.150002 6.0999999 1.4
32.150002 6.0999999 1.5
32.150002 6.0999999 1.6
32.150002 6.0999999 1.7
32.150002 6.0999999 1.8
32.150002 6.0999999 1.9
32.150002 6.0999999 2
32.150002 6.0999999 2.0999999
32.150002 6.0999999 2.2
32.150002 6.0999999 2.3
32.150002 6.0999999 2.4000001
32.150002 6.0999999 2.5
32.150002 6.0999999 2.5999999
32.150002 6.0999999 2.7
32.150002 6.0999999 2.8
32.150002 6.0999999 2.9000001
32.150002 6.0999999 3
32.150002 6.0999999 3.0999999
32.150002 6.0999999 3.2
32.150002 6.0999999 3.3
32.150002 6.0999999 3.4000001
32.049999 6.0999999 -0.5
32.049999 6.0999999 -0.40000001
32.049999 6.0999999 -0.30000001
32.049999 6.0999999 -0.2
32.049999 6.0999999 -0.1
32.049999 6.0999999 -2.7755576e-17
32.049999 6.0999999 0.1
32.049999 6.0999999 0.2
32.049999 6.0999999 0.30000001
32.049999 6.0999999 0.40000001
32.049999 6.0999999 0.5
32.049999 6.0999999 0.60000002
32.049999 6.0999999 0.69999999
32.049999 6.0999999 0.80000001
32.049999 6.0999999 0.89999998
32.049999 6.0999999 1
32.049999 6.0999999 1.1
32.049999 6.0999999 1.2
32.049999 6.0999999 1.3
32.049999 6.0999999 1.4
32.049999 6.0999999 1.5
32.049999 6.0999999 1.6
32.049999 6.0999999 1.7
32.049999 6.0999999 1.8
32.049999 6.0999999 1.9
32.049999 6.0999999 2
32.049999 6.0999999 2.0999999
32.049999 6.0999999 2.2
32.049999 6.0999999 2.3
32.049999 6.0999999 2.4000001
32.049999 6.0999999 2.5
32.049999 6.0999999 2.5999999
32.049999 6.0999999 2.7
32.049999 6.0999999 2.8
32.049999 6.0999999 2.9000001
32.049999 6.0999999 3
32.049999 6.0999999 3.0999999
32.049999 6.0999999 3.2
32.049999 6.0999999 3.3
32.049999 6.0999999 3.4000001
31.950001 6.0999999 -0.5
31.950001 6.0999999 -0.40000001
31.950001 6.0999999 -0.30000001
31.950001 6.0999999 -0.2
31.950001 6.0999999 -0.1
31.950001 6.0999999 -2.7755576e-17
31.950001 6.0999999 0.1
31.950001 6.0999999 0.2
31.950001 6.0999999 0.30000001
31.950001 6.0999999 0.40000001
31.950001 6.0999999 0.5
31.950001 6.0999999 0.60000002
31.950001 6.0999999 0.69999999
31.950001 6.0999999 0.80000001
31.950001 6.0999999 0.89999998
31.950001 6.0999999 1
31.950001 6.0999999 1.1
31.950001 6.0999999 1.2
31.950001 6.0999999 1.3
31.950001 6.0999999 1.4
31.950001 6.0999999 1.5
31.950001 6.0999999 1.6
31.950001 6.0999999 1.7
31.950001 6.0999999 1.8
31.950001 6.0999999 1.9
31.950001 6.0999999 2
31.950001 6.0999999 2.0999999
31.950001 6.0999999 2.2
31.950001 6.0999999 2.3
31.950001 6.0999999 2.4000001
31.950001 6.0999999 2.5
31.950001 6.0999999 2.5999999
31.950001 6.0999999 2.7
31.950001 6.0999999 2.8
31.950001 6.0999999 2.9000001
31.950001 6.0999999 3
31.950001 6.0999999 3.0999999
31.950001 6.0999999 3.2
31.950001 6.0999999 3.3
31.950001 6.0999999 3.4000001
31.85 6.0999999 -0.5
31.85 6.0999999 -0.40000001
31.85 6.0999999 -0.30000001
31.85 6.0999999 -0.2
31.85 6.0999999 -0.1
31.85 6.0999999 -2.7755576e-17
31.85 6.0999999 0.1
31.85 6.0999999 0.2
31.85 6.0999999 0.30000001
31.85 6.0999999 0.40000001
31.85 6.0999999 0.5
31.85 6.0999999 0.60000002
31.85 6.0999999 0.69999999
31.85 6.0999999 0.80000001
31.85 6.0999999 0.89999998
31.85 6.0999999 1
31.85 6.0999999 1.1
31.85 6.0999999 1.2
31.85 6.0999999 1.3
31.85 6.0999999 1.4
31.85 6.0999999 1.5
31.85 6.0999999 1.6
31.85 6.0999999 1.7
31.85 6.0999999 1.8
31.85 6.0999999 1.9
31.85 6.0999999 2
31.85 6.0999999 2.0999999
31.85 6.0999999 2.2
31.85 6.0999999 2.3
31.85 6.0999999 2.4000001
31.85 6.0999999 2.5
31.85 6.0999999 2.5999999
31.85 6.0999999 2.7
31.85 6.0999999 2.8
31.85 6.0999999 2.9000001
31.85 6.0999999 3
31.85 6.0999999 3.0999999
31.85 6.0999999 3.2
31.85 6.0999999 3.3
31.85 6.0999999 3.4000001
32.150002 6.1999998 -0.5
32.150002 6.1999998 -0.40000001
32.150002 6.1999998 -0.30000001
32.150002 6.1999998 -0.2
32.150002 6.1999998 -0.1
32.150002 6.1999998 -2.7755576e-17
32.150002 6.1999998 0.1
32.150002 6.1999998 0.2
32.150002 6.1999998 0.30000001
32.150002 6.1999998 0.40000001
32.150002 6.1999998 0.5
32.150002 6.1999998 0.60000002
32.150002 6.1999998 0.69999999
32.150002 6.1999998 0.80000001
32.150002 6.1999998 0.89999998
32.150002 6.1999998 1
32.150002 6.1999998 1.1
32.150002 6.1999998 1.2
32.150002 6.1999998 1.3
32.150002 6.1999998 1.4
32.150002 6.1999998 1.5
32.150002 6.1999998 1.6
32.150002 6.1999998 1.7
32.150002 6.1999998 1.8
32.150002 6.1999998 1.9
32.150002 6.1999998 2
32.150002 6.1999998 2.0999999
32.150002 6.1999998 2.2
32.150002 6.1999998 2.3
32.150002 6.1999998 2.4000001
32.150002 6.1999998 2.5
32.150002 6.1999998 2.5999999
32.150002 6.1999998 2.7
32.150002 6.1999998 2.8
32.150002 6.1999998 2.9000001
32.150002 6.1999998 3
32.150002 6.1999998 3.0999999
32.150002 6.1999998 3.2
32.150002 6.1999998 3.3
32.150002 6.1999998 3.4000001
32.049999 6.1999998 -0.5
32.049999 6.1999998 -0.40000001
32.049999 6.1999998 -0.30000001
32.049999 6.1999998 -0.2
32.049999 6.1999998 -0.1
32.049999 6.1999998 -2.7755576e-17
32.049999 6.1999998 0.1
32.049999 6.1999998 0.2
32.049999 6.1999998 0.30000001
32.049999 6.1999998 0.40000001
32.049999 6.1999998 0.5
32.049999 6.1999998 0.60000002
32.049999 6.1999998 0.69999999
32.049999 6.1999998 0.80000001
32.049999 6.1999998 0.89999998
32.049999 6.1999998 1
32.049999 6.1999998 1.1
32.049999 6.1999998 1.2
32.049999 6.1999998 1.3
32.049999 6.1999998 1.4
32.049999 6.1999998 1.5
32.049999 6.1999998 1.6
32.049999 6.1999998 1.7
32.049999 6.1999998 1.8
32.049999 6.1999998 1.9
32.049999 6.1999998 2
32.049999 6.1999998 2.0999999
32.049999 6.1999998 2.2
32.049999 6.1999998 2.3
32.049999 6.1999998 2.4000001
32.049999 6.1999998 2.5
32.049999 6.1999998 2.5999999
32.049999 6.1999998 2.7
32.049999 6.1999998 2.8
32.049999 6.1999998 2.9000001
32.049999 6.1999998 3
32.049999 6.1999998 3.0999999
32.049999 6.1999998 3.2
32.049999 6.1999998 3.3
32.049999 6.1999998 3.4000001
31.950001 6.1999998 -0.5
31.950001 6.1999998 -0.40000001
31.950001 6.1999998 -0.30000001
31.950001 6.1999998 -0.2
31.950001 6.1999998 -0.1
31.950001 6.1999998 -2.7755576e-17
31.950001 6.1999998 0.1
31.950001 6.1999998 0.2
31.950001 6.1999998 0.30000001
31.950001 6.1999998 0.40000001
31.950001 6.1999998 0.5
31.950001 6.1999998 0.60000002
31.950001 6.1999998 0.69999999
31.950001 6.1999998 0.80000001
31.950001 6.1999998 0.89999998
31.950001 6.1999998 1
31.950001 6.1999998 1.1
31.950001 6.1999998 1.2
31.950001 6.1999998 1.3
31.950001 6.1999998 1.4
31.950001 6.1999998 1.5
31.950001 6.1999998 1.6
31.950001 6.1999998 1.7
31.950001 6.1999998 1.8
31.950001 6.1999998 1.9
31.950001 6.1999998 2
31.950001 6.1999998 2.0999999
31.950001 6.1999998 2.2
31.950001 6.1999998 2.3
31.950001 6.1999998 2.4000001
31.950001 6.1999998 2.5
31.950001 6.1999998 2.5999999
31.950001 6.1999998 2.7
31.950001 6.1999998 2.8
31.950001 6.1999998 2.9000001
31.950001 6.1999998 3
31.950001 6.1999998 3.0999999
31.950001 6.1999998 3.2
31.950001 6.1999998 3.3
31.950001 6.1999998 3.4000001
31.85 6.1999998 -0.5
31.85 6.1999998 -0.40000001
31.85 6.1999998 -0.30000001
31.85 6.1999998 -0.2
31.85 6.1999998 -0.1
31.85 6.1999998 -2.7755576e-17
31.85 6.1999998 0.1
31.85 6.1999998 0.2
31.85 6.1999998 0.30000001
31.85 6.1999998 0.40000001
31.85 6.1999998 0.5
31.85 6.1999998 0.60000002
31.85 6.1999998 0.69999999
31.85 6.1999998 0.80000001
31.85 6.1999998 0.89999998
31.85 6.1999998 1
31.85 6.1999998 1.1
31.85 6.1999998 1.2
31.85 6.1999998 1.3
31.85 6.1999998 1.4
31.85 6.1999998 1.5
31.85 6.1999998 1.6
31.85 6.1999998 1.7
31.85 6.1999998 1.8
31.85 6.1999998 1.9
31.85 6.1999998 2
31.85 6.1999998 2.0999999
31.85 6.1999998 2.2
31.85 6.1999998 2.3
31.85 6.1999998 2.4000001
31.85 6.1999998 2.5
31.85 6.1999998 2.5999999
31.85 6.1999998 2.7
31.85 6.1999998 2.8
31.85 6.1999998 2.9000001
31.85 6.1999998 3
31.85 6.1999998 3.0999999
31.85 6.1999998 3.2
31.85 6.1999998 3.3
31.85 6.1999998 3.4000001
32.150002 6.3000002 -0.5
32.150002 6.3000002 -0.40000001
32.150002 6.3000002 -0.30000001
32.150002 6.3000002 -0.2
32.150002 6.3000002 -0.1
32.150002 6.3000002 -2.7755576e-17
32.150002 6.3000002 0.1
32.150002 6.3000002 0.2
32.150002 6.3000002 0.30000001
32.150002 6.3000002 0.40000001
32.150002 6.3000002 0.5
32.150002 6.3000002 0.60000002
32.150002 6.3000002 0.69999999
32.150002 6.3000002 0.80000001
32.150002 6.3000002 0.89999998
32.150002 6.3000002 1
32.150002 6.3000002 1.1
32.150002 6.3000002 1.2
32.150002 6.3000002 1.3
32.150002 6.3000002 1.4
32.150002 6.3000002 1.5
32.150002 6.3000002 1.6
32.150002 6.3000002 1.7
32.150002 6.3000002 1.8
32.150002 6.3000002 1.9
32.150002 6.3000002 2
32.150002 6.3000002 2.0999999
32.150002 6.3000002 2.2
32.150002 6.3000002 2.3
32.150002 6.3000002 2.4000001
32.150002 6.3000002 2.5
32.150002 6.3000002 2.5999999
32.150002 6.3000002 2.7
32.150002 6.3000002 2.8
32.150002 6.3000002 2.9000001
32.150002 6.3000002 3
32.150002 6.3000002 3.0999999
32.150002 6.3000002 3.2
32.150002 6.3000002 3.3
32.150002 6.3000002 3.4000001
32.049999 6.3000002 -0.5
32.049999 6.3000002 -0.40000001
32.049999 6.3000002 -0.30000001
32.049999 6.3000002 -0.2
32.049999 6.3000002 -0.1
32.049999 6.3000002 -2.7755576e-17
32.049999 6.3000002 0.1
32.049999 6.3000002 0.2
32.049999 6.3000002 0.30000001
32.049999 6.3000002 0.40000001
32.049999 6.3000002 0.5
32.049999 6.3000002 0.60000002
32.049999 6.3000002 0.69999999
32.049999 6.3000002 0.80000001
32.049999 6.3000002 0.89999998
32.049999 6.3000002 1
32.049999 6.3000002 1.1
32.049999 6.3000002 1.2
32.049999 6.3000002 1.3
32.049999 6.3000002 1.4
32.049999 6.3000002 1.5
32.049999 6.3000002 1.6
32.049999 6.3000002 1.7
32.049999 6.3000002 1.8
32.049999 6.3000002 1.9
32.049999 6.3000002 2
32.049999 6.3000002 2.0999999
32.049999 6.3000002 2.2
32.049999 6.3000002 2.3
32.049999 6.3000002 2.4000001
32.049999 6.3000002 2.5
32.049999 6.3000002 2.5999999
32.049999 6.3000002 2.7
32.049999 6.3000002 2.8
32.049999 6.3000002 2.9000001
32.049999 6.3000002 3
32.049999 6.3000002 3.0999999
32.049999 6.3000002 3.2
32.049999 6.3000002 3.3
32.049999 6.3000002 3.4000001
31.950001 6.3000002 -0.5
31.950001 6.3000002 -0.40000001
31.950001 6.3000002 -0.30000001
31.950001 6.3000002 -0.2
31.950001 6.3000002 -0.1
31.950001 6.3000002 -2.7755576e-17
31.950001 6.3000002 0.1
31.950001 6.3000002 0.2
31.950001 6.3000002 0.30000001
31.950001 6.3000002 0.40000001
31.950001 6.3000002 0.5
31.950001 6.3000002 0.60000002
31.950001 6.3000002 0.69999999
31.950001 6.3000002 0.80000001
31.950001 6.3000002 0.89999998
31.950001 6.3000002 1
31.950001 6.3000002 1.1
31.950001 6.3000002 1.2
31.950001 6.3000002 1.3
31.950001 6.3000002 1.4
31.950001 6.3000002 1.5
31.950001 6.3000002 1.6
31.950001 6.3000002 1.7
31.950001 6.3000002 1.8
31.950001 6.3000002 1.9
31.950001 6.3000002 2
31.950001 6.3000002 2.0999999
31.950001 6.3000002 2.2
31.950001 6.3000002 2.3
31.950001 6.3000002 2.4000001
31.950001 6.3000002 2.5
31.950001 6.3000002 2.5999999
31.950001 6.3000002 2.7
31.950001 6.3000002 2.8
31.950001 6.3000002 2.9000001
31.950001 6.3000002 3
31.950001 6.3000002 3.0999999
31.950001 6.3000002 3.2
31.950001 6.3000002 3.3
31.950001 6.3000002 3.4000001
31.85 6.3000002 -0.5
31.85 6.3000002 -0.40000001
31.85 6.3000002 -0.30000001
31.85 6.3000002 -0.2
31.85 6.3000002 -0.1
31.85 6.3000002 -2.7755576e-17
31.85 6.3000002 0.1
31.85 6.3000002 0.2
31.85 6.3000002 0.30000001
31.85 6.3000002 0.40000001
31.85 6.3000002 0.5
31.85 6.3000002 0.60000002
31.85 6.3000002 0.69999999
31.85 6.3000002 0.80000001
31.85 6.3000002 0.89999998
31.85 6.3000002 1
31.85 6.3000002 1.1
31.85 6.3000002 1.2
31.85 6.3000002 1.3
31.85 6.3000002 1.4
31.85 6.3000002 1.5
31.85 6.3000002 1.6
31.85 6.3000002 1.7
31.85 6.3000002 1.8
31.85 6.3000002 1.9
31.85 6.3000002 2
31.85 6.3000002 2.0999999
31.85 6.3000002 2.2
31.85 6.3000002 2.3
31.85 6.3000002 2.4000001
31.85 6.3000002 2.5
31.85 6.3000002 2.5999999
31.85 6.3000002 2.7
31.85 6.3000002 2.8
31.85 6.3000002 2.9000001
31.85 6.3000002 3
31.85 6.3000002 3.0999999
31.85 6.3000002 3.2
31.85 6.3000002 3.3
31.85 6.3000002 3.4000001
32.150002 6.4000001 -0.5
32.150002 6.4000001 -0.40000001
32.150002 6.4000001 -0.30000001
32.150002 6.4000001 -0.2
32.150002 6.4000001 -0.1
32.150002 6.4000001 -2.7755576e-17
32.150002 6.4000001 0.1
32.150002 6.4000001 0.2
32.150002 6.4000001 0.30000001
32.150002 6.4000001 0.40000001
32.150002 6.4000001 0.5
32.150002 6.4000001 0.60000002
32.150002 6.4000001 0.69999999
32.150002 6.4000001 0.80000001
32.150002 6.4000001 0.89999998
32.150002 6.4000001 1
32.150002 6.4000001 1.1
32.150002 6.4000001 1.2
32.150002 6.4000001 1.3
32.150002 6.4000001 1.4
32.150002 6.4000001 1.5
32.150002 6.4000001 1.6
32.150002 6.4000001 1.7
32.150002 6.4000001 1.8
32.150002 6.4000001 1.9
32.150002 6.4000001 2
32.150002 6.4000001 2.0999999
32.150002 6.4000001 2.2
32.150002 6.4000001 2.3
32.150002 6.4000001 2.4000001
32.150002 6.4000001 2.5
32.150002 6.4000001 2.5999999
32.150002 6.4000001 2.7
32.150002 6.4000001 2.8
32.150002 6.4000001 2.9000001
32.150002 6.4000001 3
32.150002 6.4000001 3.0999999
32.150002 6.4000001 3.2
32.150002 6.4000001 3.3
32.150002 6.4000001 3.4000001
32.049999 6.4000001 -0.5
32.049999 6.4000001 -0.40000001
32.049999 6.4000001 -0.30000001
32.049999 6.4000001 -0.2
32.049999 6.4000001 -0.1
32.049999 6.4000001 -2.7755576e-17
32.049999 6.4000001 0.1
32.049999 6.4000001 0.2
32.049999 6.4000001 0.30000001
32.049999 6.4000001 0.40000001
32.049999 6.4000001 0.5
32.049999 6.4000001 0.60000002
32.049999 6.4000001 0.69999999
32.049999 6.4000001 0.80000001
32.049999 6.4000001 0.89999998
32.049999 6.4000001 1
32.049999 6.4000001 1.1
32.049999 6.4000001 1.2
32.049999 6.4000001 1.3
32.049999 6.4000001 1.4
32.049999 6.4000001 1.5
32.049999 6.4000001 1.6
32.049999 6.4000001 1.7
32.049999 6.4000001 1.8
32.049999 6.4000001 1.9
32.049999 6.4000001 2
32.049999 6.4000001 2.0999999
32.049999 6.4000001 2.2
32.049999 6.4000001 2.3
32.049999 6.4000001 2.4000001
32.049999 6.4000001 2.5
32.049999 6.4000001 2.5999999
32.049999 6.4000001 2.7
32.049999 6.4000001 2.8
32.049999 6.4000001 2.9000001
32.049999 6.4000001 3
32.049999 6.4000001 3.0999999
32.049999 6.4000001 3.2
32.049999 6.4000001 3.3
32.049999 6.4000001 3.4000001
31.950001 6.4000001 -0.5
31.950001 6.4000001 -0.40000001
31.950001 6.4000001 -0.30000001
31.950001 6.4000001 -0.2
31.950001 6.4000001 -0.1
31.950001 6.4000001 -2.7755576e-17
31.950001 6.4000001 0.1
31.950001 6.4000001 0.2
31.950001 6.4000001 0.30000001
31.950001 6.4000001 0.40000001
31.950001 6.4000001 0.5
31.950001 6.4000001 0.60000002
31.950001 6.4000001 0.69999999
31.950001 6.4000001 0.80000001
31.950001 6.4000001 0.89999998
31.950001 6.4000001 1
31.950001 6.4000001 1.1
31.950001 6.4000001 1.2
31.950001 6.4000001 1.3
31.950001 6.4000001 1.4
31.950001 6.4000001 1.5
31.950001 6.4000001 1.6
31.950001 6.4000001 1.7
31.950001 6.4000001 1.8
31.950001 6.4000001 1.9
31.950001 6.4000001 2
31.950001 6.4000001 2.0999999
31.950001 6.4000001 2.2
31.950001 6.4000001 2.3
31.950001 6.4000001 2.4000001
31.950001 6.4000001 2.5
31.950001 6.4000001 2.5999999
31.950001 6.4000001 2.7
31.950001 6.4000001 2.8
31.950001 6.4000001 2.9000001
31.950001 6.4000001 3
31.950001 6.4000001 3.0999999
31.950001 6.4000001 3.2
31.950001 6.4000001 3.3
31.950001 6.4000001 3.4000001
31.85 6.4000001 -0.5
31.85 6.4000001 -0.40000001
31.85 6.4000001 -0.30000001
31.85 6.4000001 -0.2
31.85 6.4000001 -0.1
31.85 6.4000001 -2.7755576e-17
31.85 6.4000001 0.1
31.85 6.4000001 0.2
31.85 6.4000001 0.30000001
31.85 6.4000001 0.40000001
31.85 6.4000001 0.5
31.85 6.4000001 0.60000002
31.85 6.4000001 0.69999999
31.85 6.4000001 0.80000001
31.85 6.4000001 0.89999998
31.85 6.4000001 1
31.85 6.4000001 1.1
31.85 6.4000001 1.2
31.85 6.4000001 1.3
31.85 6.4000001 1.4
31.85 6.4000001 1.5
31.85 6.4000001 1.6
31.85 6.4000001 1.7
31.85 6.4000001 1.8
31.85 6.4000001 1.9
31.85 6.4000001 2
31.85 6.4000001 2.0999999
31.85 6.4000001 2.2
31.85 6.4000001 2.3
31.85 6.4000001 2.4000001
31.85 6.4000001 2.5
31.85 6.4000001 2.5999999
31.85 6.4000001 2.7
31.85 6.4000001 2.8
31.85 6.4000001 2.9000001
31.85 6.4000001 3
31.85 6.4000001 3.0999999
31.85 6.4000001 3.2
31.85 6.4000001 3.3
31.85 6.4000001 3.4000001
32.150002 6.5 -0.5
32.150002 6.5 -0.40000001
32.150002 6.5 -0.30000001
32.150002 6.5 -0.2
32.150002 6.5 -0.1
32.150002 6.5 -2.7755576e-17
32.150002 6.5 0.1
32.150002 6.5 0.2
32.150002 6.5 0.30000001
32.150002 6.5 0.40000001
32.150002 6.5 0.5
32.150002 6.5 0.60000002
32.150002 6.5 0.69999999
32.150002 6.5 0.80000001
32.150002 6.5 0.89999998
32.150002 6.5 1
32.150002 6.5 1.1
32.150002 6.5 1.2
32.150002 6.5 1.3
32.150002 6.5 1.4
32.150002 6.5 1.5
32.150002 6.5 1.6
32.150002 6.5 1.7
32.150002 6.5 1.8
32.150002 6.5 1.9
32.150002 6.5 2
32.150002 6.5 2.0999999
32.150002 6.5 2.2
32.150002 6.5 2.3
32.150002 6.5 2.4000001
32.150002 6.5 2.5
32.150002 6.5 2.5999999
32.150002 6.5 2.7
32.150002 6.5 2.8
32.150002 6.5 2.9000001
32.150002 6.5 3
32.150002 6.5 3.0999999
32.150002 6.5 3.2
32.150002 6.5 3.3
32.150002 6.5 3.4000001
32.049999 6.5 -0.5
32.049999 6.5 -0.40000001
32.049999 6.5 -0.30000001
32.049999 6.5 -0.2
32.049999 6.5 -0.1
32.049999 6.5 -2.7755576e-17
32.049999 6.5 0.1
32.049999 6.5 0.2
32.049999 6.5 0.30000001
32.049999 6.5 0.40000001
32.049999 6.5 0.5
32.049999 6.5 0.60000002
32.049999 6.5 0.69999999
32.049999 6.5 0.80000001
32.049999 6.5 0.89999998
32.049999 6.5 1
32.049999 6.5 1.1
32.049999 6.5 1.2
32.049999 6.5 1.3
32.049999 6.5 1.4
32.049999 6.5 1.5
32.049999 6.5 1.6
32.049999 6.5 1.7
32.049999 6.5 1.8
32.049999 6.5 1.9
32.049999 6.5 2
32.049999 6.5 2.0999999
32.049999 6.5 2.2
32.049999 6.5 2.3
32.049999 6.5 2.4000001
32.049999 6.5 2.5
32.049999 6.5 2.5999999
32.049999 6.5 2.7
32.049999 6.5 2.8
32.049999 6.5 2.9000001
32.049999 6.5 3
32.049999 6.5 3.0999999
32.049999 6.5 3.2
32.049999 6.5 3.3
32.049999 6.5 3.4000001
31.950001 6.5 -0.5
31.950001 6.5 -0.40000001
31.950001 6.5 -0.30000001
31.950001 6.5 -0.2
31.950001 6.5 -0.1
31.950001 6.5 -2.7755576e-17
31.950001 6.5 0.1
31.950001 6.5 0.2
31.950001 6.5 0.30000001
31.950001 6.5 0.40000001
31.950001 6.5 0.5
31.950001 6.5 0.60000002
31.950001 6.5 0.69999999
31.950001 6.5 0.80000001
31.950001 6.5 0.89999998
31.950001 6.5 1
31.950001 6.5 1.1
31.950001 6.5 1.2
31.950001 6.5 1.3
31.950001 6.5 1.4
31.950001 6.5 1.5
31.950001 6.5 1.6
31.950001 6.5 1.7
31.950001 6.5 1.8
31.950001 6.5 1.9
31.950001 6.5 2
31.950001 6.5 2.0999999
31.950001 6.5 2.2
31.950001 6.5 2.3
31.950001 6.5 2.4000001
31.950001 6.5 2.5
31.950001 6.5 2.5999999
31.950001 6.5 2.7
31.950001 6.5 2.8
31.950001 6.5 2.9000001
31.950001 6.5 3
31.950001 6.5 3.0999999
31.950001 6.5 3.2
31.950001 6.5 3.3
31.950001 6.5 3.4000001
31.85 6.5 -0.5
31.85 6.5 -0.40000001
31.85 6.5 -0.30000001
31.85 6.5 -0.2
31.85 6.5 -0.1
31.85 6.5 -2.7755576e-17
31.85 6.5 0.1
31.85 6.5 0.2
31.85 6.5 0.30000001
31.85 6.5 0.40000001
31.85 6.5 0.5
31.85 6.5 0.60000002
31.85 6.5 0.69999999
31.85 6.5 0.80000001
31.85 6.5 0.89999998
31.85 6.5 1
31.85 6.5 1.1
31.85 6.5 1.2
31.85 6.5 1.3
31.85 6.5 1.4
31.85 6.5 1.5
31.85 6.5 1.6
31.85 6.5 1.7
31.85 6.5 1.8
31.85 6.5 1.9
31.85 6.5 2
31.85 6.5 2.0999999
31.85 6.5 2.2
31.85 6.5 2.3
31.85 6.5 2.4000001
31.85 6.5 2.5
31.85 6.5 2.5999999
31.85 6.5 2.7
31.85 6.5 2.8
31.85 6.5 2.9000001
31.85 6.5 3
31.85 6.5 3.0999999
31.85 6.5 3.2
31.85 6.5 3.3
31.85 6.5 3.4000001
32.150002 6.5999999 -0.5
32.150002 6.5999999 -0.40000001
32.150002 6.5999999 -0.30000001
32.150002 6.5999999 -0.2
32.150002 6.5999999 -0.1
32.150002 6.5999999 -2.7755576e-17
32.150002 6.5999999 0.1
32.150002 6.5999999 0.2
32.150002 6.5999999 0.30000001
32.150002 6.5999999 0.40000001
32.150002 6.5999999 0.5
32.150002 6.5999999 0.60000002
32.150002 6.5999999 0.69999999
32.150002 6.5999999 0.80000001
32.150002 6.5999999 0.89999998
32.150002 6.5999999 1
32.150002 6.5999999 1.1
32.150002 6.5999999 1.2
32.150002 6.5999999 1.3
32.150002 6.5999999 1.4
32.150002 6.5999999 1.5
32.150002 6.5999999 1.6
32.150002 6.5999999 1.7
32.150002 6.5999999 1.8
32.150002 6.5999999 1.9
32.150002 6.5999999 2
32.150002 6.5999999 2.0999999
32.150002 6.5999999 2.2
32.150002 6.5999999 2.3
32.150002 6.5999999 2.4000001
32.150002 6.5999999 2.5
32.150002 6.5999999 2.5999999
32.150002 6.5999999 2.7
32.150002 6.5999999 2.8
32.150002 6.5999999 2.9000001
32.150002 6.5999999 3
32.150002 6.5999999 3.0999999
32.150002 6.5999999 3.2
32.150002 6.5999999 3.3
32.150002 6.5999999 3.4000001
32.049999 6.5999999 -0.5
32.049999 6.5999999 -0.40000001
32.049999 6.5999999 -0.30000001
32.049999 6.5999999 -0.2
32.049999 6.5999999 -0.1
32.049999 6.5999999 -2.7755576e-17
32.049999 6.5999999 0.1
32.049999 6.5999999 0.2
32.049999 6.5999999 0.30000001
32.049999 6.5999999 0.40000001
32.049999 6.5999999 0.5
32.049999 6.5999999 0.60000002
32.049999 6.5999999 0.69999999
32.049999 6.5999999 0.80000001
32.049999 6.5999999 0.89999998
32.049999 6.5999999 1
32.049999 6.5999999 1.1
32.049999 6.5999999 1.2
32.049999 6.5999999 1.3
32.049999 6.5999999 1.4
32.049999 6.5999999 1.5
32.049999 6.5999999 1.6
32.049999 6.5999999 1.7
32.049999 6.5999999 1.8
32.049999 6.5999999 1.9
32.049999 6.5999999 2
32.049999 6.5999999 2.0999999
32.049999 6.5999999 2.2
32.049999 6.5999999 2.3
32.049999 6.5999999 2.4000001
32.049999 6.5999999 2.5
32.049999 6.5999999 2.5999999
32.049999 6.5999999 2.7
32.049999 6.5999999 2.8
32.049999 6.5999999 2.9000001
32.049999 6.5999999 3
32.049999 6.5999999 3.0999999
32.049999 6.5999999 3.2
32.049999 6.5999999 3.3
32.049999 6.5999999 3.4000001
31.950001 6.5999999 -0.5
31.950001 6.5999999 -0.40000001
31.950001 6.5999999 -0.30000001
31.950001 6.5999999 -0.2
31.950001 6.5999999 -0.1
31.950001 6.5999999 -2.7755576e-17
31.950001 6.5999999 0.1
31.950001 6.5999999 0.2
31.950001 6.5999999 0.30000001
31.950001 6.5999999 0.40000001
31.950001 6.5999999 0.5
31.950001 6.5999999 0.60000002
31.950001 6.5999999 0.69999999
31.950001 6.5999999 0.80000001
31.950001 6.5999999 0.89999998
31.950001 6.5999999 1
31.950001 6.5999999 1.1
31.950001 6.5999999 1.2
31.950001 6.5999999 1.3
31.950001 6.5999999 1.4
31.950001 6.5999999 1.5
31.950001 6.5999999 1.6
31.950001 6.5999999 1.7
31.950001 6.5999999 1.8
31.950001 6.5999999 1.9
31.950001 6.5999999 2
31.950001 6.5999999 2.0999999
31.950001 6.5999999 2.2
31.950001 6.5999999 2.3
31.950001 6.5999999 2.4000001
31.950001 6.5999999 2.5
31.950001 6.5999999 2.5999999
31.950001 6.5999999 2.7
31.950001 6.5999999 2.8
31.950001 6.5999999 2.9000001
31.950001 6.5999999 3
31.950001 6.5999999 3.0999999
31.950001 6.5999999 3.2
31.950001 6.5999999 3.3
31.950001 6.5999999 3.4000001
31.85 6.5999999 -0.5
31.85 6.5999999 -0.40000001
31.85 6.5999999 -0.30000001
31.85 6.5999999 -0.2
31.85 6.5999999 -0.1
31.85 6.5999999 -2.7755576e-17
31.85 6.5999999 0.1
31.85 6.5999999 0.2
31.85 6.5999999 0.30000001
31.85 6.5999999 0.40000001
31.85 6.5999999 0.5
31.85 6.5999999 0.60000002
31.85 6.5999999 0.69999999
31.85 6.5999999 0.80000001
31.85 6.5999999 0.89999998
31.85 6.5999999 1
31.85 6.5999999 1.1
31.85 6.5999999 1.2
31.85 6.5999999 1.3
31.85 6.5999999 1.4
31.85 6.5999999 1.5
31.85 6.5999999 1.6
31.85 6.5999999 1.7
31.85 6.5999999 1.8
31.85 6.5999999 1.9
31.85 6.5999999 2
31.85 6.5999999 2.0999999
31.85 6.5999999 2.2
31.85 6.5999999 2.3
31.85 6.5999999 2.4000001
31.85 6.5999999 2.5
31.85 6.5999999 2.5999999
31.85 6.5999999 2.7
31.85 6.5999999 2.8
31.85 6.5999999 2.9000001
31.85 6.5999999 3
31.85 6.5999999 3.0999999
31.85 6.5999999 3.2
31.85 6.5999999 3.3
31.85 6.5999999 3.4000001
32.150002 6.6999998 -0.5
32.150002 6.6999998 -0.40000001
32.150002 6.6999998 -0.30000001
32.150002 6.6999998 -0.2
32.150002 6.6999998 -0.1
32.150002 6.6999998 -2.7755576e-17
32.150002 6.6999998 0.1
32.150002 6.6999998 0.2
32.150002 6.6999998 0.30000001
32.150002 6.6999998 0.40000001
32.150002 6.6999998 0.5
32.150002 6.6999998 0.60000002
32.150002 6.6999998 0.69999999
32.150002 6.6999998 0.80000001
32.150002 6.6999998 0.89999998
32.150002 6.6999998 1
32.150002 6.6999998 1.1
32.150002 6.6999998 1.2
32.150002 6.6999998 1.3
32.150002 6.6999998 1.4
32.150002 6.6999998 1.5
32.150002 6.6999998 1.6
32.150002 6.6999998 1.7
32.150002 6.6999998 1.8
32.150002 6.6999998 1.9
32.150002 6.6999998 2
32.150002 6.6999998 2.0999999
32.150002 6.6999998 2.2
32.150002 6.6999998 2.3
32.150002 6.6999998 2.4000001
32.150002 6.6999998 2.5
32.150002 6.6999998 2.5999999
32.150002 6.6999998 2.7
32.150002 6.6999998 2.8
32.150002 6.6999998 2.9000001
32.150002 6.6999998 3
32.150002 6.6999998 3.0999999
32.150002 6.6999998 3.2
32.150002 6.6999998 3.3
32.150002 6.6999998 3.4000001
32.049999 6.6999998 -0.5
32.049999 6.6999998 -0.40000001
32.049999 6.6999998 -0.30000001
32.049999 6.6999998 -0.2
32.049999 6.6999998 -0.1
32.049999 6.6999998 -2.7755576e-17
32.049999 6.6999998 0.1
32.049999 6.6999998 0.2
32.049999 6.6999998 0.30000001
32.049999 6.6999998 0.40000001
32.049999 6.6999998 0.5
32.049999 6.6999998 0.60000002
32.049999 6.6999998 0.69999999
32.049999 6.6999998 0.80000001
32.049999 6.6999998 0.89999998
32.049999 6.6999998 1
32.049999 6.6999998 1.1
32.049999 6.6999998 1.2
32.049999 6.6999998 1.3
32.049999 6.6999998 1.4
32.049999 6.6999998 1.5
32.049999 6.6999998 1.6
32.049999 6.6999998 1.7
32.049999 6.6999998 1.8
32.049999 6.6999998 1.9
32.049999 6.6999998 2
32.049999 6.6999998 2.0999999
32.049999 6.6999998 2.2
32.049999 6.6999998 2.3
32.049999 6.6999998 2.4000001
32.049999 6.6999998 2.5
32.049999 6.6999998 2.5999999
32.049999 6.6999998 2.7
32.049999 6.6999998 2.8
32.049999 6.6999998 2.9000001
32.049999 6.6999998 3
32.049999 6.6999998 3.0999999
32.049999 6.6999998 3.2
32.049999 6.6999998 3.3
32.049999 6.6999998 3.4000001
31.950001 6.6999998 -0.5
31.950001 6.6999998 -0.40000001
31.950001 6.6999998 -0.30000001
31.950001 6.6999998 -0.2
31.950001 6.6999998 -0.1
31.950001 6.6999998 -2.7755576e-17
31.950001 6.6999998 0.1
31.950001 6.6999998 0.2
31.950001 6.6999998 0.30000001
31.950001 6.6999998 0.40000001
31.950001 6.6999998 0.5
31.950001 6.6999998 0.60000002
31.950001 6.6999998 0.69999999
31.950001 6.6999998 0.80000001
31.950001 6.6999998 0.89999998
31.950001 6.6999998 1
31.950001 6.6999998 1.1
31.950001 6.6999998 1.2
31.950001 6.6999998 1.3
31.950001 6.6999998 1.4
31.950001 6.6999998 1.5
31.950001 6.6999998 1.6
31.950001 6.6999998 1.7
31.950001 6.6999998 1.8
31.950001 6.6999998 1.9
31.950001 6.6999998 2
31.950001 6.6999998 2.0999999
31.950001 6.6999998 2.2
31.950001 6.6999998 2.3
31.950001 6.6999998 2.4000001
31.950001 6.6999998 2.5
31.950001 6.6999998 2.5999999
31.950001 6.6999998 2.7
31.950001 6.6999998 2.8
31.950001 6.6999998 2.9000001
31.950001 6.6999998 3
31.950001 6.6999998 3.0999999
31.950001 6.6999998 3.2
31.950001 6.6999998 3.3
31.950001 6.6999998 3.4000001
31.85 6.6999998 -0.5
31.85 6.6999998 -0.40000001
31.85 6.6999998 -0.30000001
31.85 6.6999998 -0.2
31.85 6.6999998 -0.1
31.85 6.6999998 -2.7755576e-17
31.85 6.6999998 0.1
31.85 6.6999998 0.2
31.85 6.6999998 0.30000001
31.85 6.6999998 0.40000001
31.85 6.6999998 0.5
31.85 6.6999998 0.60000002
31.85 6.6999998 0.69999999
31.85 6.6999998 0.80000001
31.85 6.6999998 0.89999998
31.85 6.6999998 1
31.85 6.6999998 1.1
31.85 6.6999998 1.2
31.85 6.6999998 1.3
31.85 6.6999998 1.4
31.85 6.6999998 1.5
31.85 6.6999998 1.6
31.85 6.6999998 1.7
31.85 6.6999998 1.8
31.85 6.6999998 1.9
31.85 6.6999998 2
31.85 6.6999998 2.0999999
31.85 6.6999998 2.2
31.85 6.6999998 2.3
31.85 6.6999998 2.4000001
31.85 6.6999998 2.5
31.85 6.6999998 2.5999999
31.85 6.6999998 2.7
31.85 6.6999998 2.8
31.85 6.6999998 2.9000001
31.85 6.6999998 3
31.85 6.6999998 3.0999999
31.85 6.6999998 3.2
31.85 6.6999998 3.3
31.85 6.6999998 3.4000001
32.150002 6.8000002 -0.5
32.150002 6.8000002 -0.40000001
32.150002 6.8000002 -0.30000001
32.150002 6.8000002 -0.2
32.150002 6.8000002 -0.1
32.150002 6.8000002 -2.7755576e-17
32.150002 6.8000002 0.1
32.150002 6.8000002 0.2
32.150002 6.8000002 0.30000001
32.150002 6.8000002 0.40000001
32.150002 6.8000002 0.5
32.150002 6.8000002 0.60000002
32.150002 6.8000002 0.69999999
32.150002 6.8000002 0.80000001
32.150002 6.8000002 0.89999998
32.150002 6.8000002 1
32.150002 6.8000002 1.1
32.150002 6.8000002 1.2
32.150002 6.8000002 1.3
32.150002 6.8000002 1.4
32.150002 6.8000002 1.5
32.150002 6.8000002 1.6
32.150002 6.8000002 1.7
32.150002 6.8000002 1.8
32.150002 6.8000002 1.9
32.150002 6.8000002 2
32.150002 6.8000002 2.0999999
32.150002 6.8000002 2.2
32.150002 6.8000002 2.3
32.150002 6.8000002 2.4000001
32.150002 6.8000002 2.5
32.150002 6.8000002 2.5999999
32.150002 6.8000002 2.7
32.150002 6.8000002 2.8
32.150002 6.8000002 2.9000001
32.150002 6.8000002 3
32.150002 6.8000002 3.0999999
32.150002 6.8000002 3.2
32.150002 6.8000002 3.3
32.150002 6.8000002 3.4000001
32.049999 6.8000002 -0.5
32.049999 6.8000002 -0.40000001
32.049999 6.8000002 -0.30000001
32.049999 6.8000002 -0.2
32.049999 6.8000002 -0.1
32.049999 6.8000002 -2.7755576e-17
32.049999 6.8000002 0.1
32.049999 6.8000002 0.2
32.049999 6.8000002 0.30000001
32.049999 6.8000002 0.40000001
32.049999 6.8000002 0.5
32.049999 6.8000002 0.60000002
32.049999 6.8000002 0.69999999
32.049999 6.8000002 0.80000001
32.049999 6.8000002 0.89999998
32.049999 6.8000002 1
32.049999 6.8000002 1.1
