# .PCD v0.7 - Point Cloud Data file format
VERSION 0.7
FIELDS x y z
SIZE 4 4 4
TYPE F F F
COUNT 1 1 1
WIDTH 1786
HEIGHT 1
VIEWPOINT 0 0 0 1 0 0 0
POINTS 1786
DATA ascii
0.57345533 2.7421963 -0.30000001
0.57345533 2.7421963 -0.2
0.57345533 2.7421963 -0.1
0.57345533 2.7421963 -2.7755576e-17
0.57345533 2.7421963 0.1
0.57345533 2.7421963 0.2
0.57345533 2.7421963 0.30000001
0.57345533 2.7421963 0.40000001
0.57345533 2.7421963 0.5
0.57345533 2.7421963 0.60000002
0.57345533 2.7421963 0.69999999
0.57345533 2.7421963 0.80000001
0.57345533 2.7421963 0.89999998
0.57345533 2.7421963 1
0.57345533 2.7421963 1.1
0.57345533 2.7421963 1.2
0.57345533 2.7421963 1.3
0.57345533 2.7421963 1.4
0.57345533 2.7421963 1.5
0.57345533 2.7421963 1.6
0.57345533 2.7421963 1.7
0.57345533 2.7421963 1.8
0.57345533 2.7421963 1.9
0.57345533 2.7421963 2
0.57345533 2.7421963 2.0999999
0.57345533 2.7421963 2.2
0.57345533 2.7421963 2.3
0.57345533 2.7421963 2.4000001
0.57345533 2.7421963 2.5
0.57345533 2.7421963 2.5999999
0.57345533 2.7421963 2.7
0.57345533 2.7421963 2.8
0.57345533 2.7421963 2.9000001
0.57345533 2.7421963 3
0.57345533 2.7421963 3.0999999
0.57345533 2.7421963 3.2
0.57345533 2.7421963 3.3
0.57345533 2.7421963 3.4000001
0.61147684 2.834686 -0.5
0.61147684 2.834686 -0.40000001
0.61147684 2.834686 -0.30000001
0.61147684 2.834686 -0.2
0.61147684 2.834686 -0.1
0.61147684 2.834686 -2.7755576e-17
0.61147684 2.834686 0.1
0.61147684 2.834686 0.2
0.61147684 2.834686 0.30000001
0.61147684 2.834686 0.40000001
0.61147684 2.834686 0.5
0.61147684 2.834686 0.60000002
0.61147684 2.834686 0.69999999
0.61147684 2.834686 0.80000001
0.61147684 2.834686 0.89999998
0.61147684 2.834686 1
0.61147684 2.834686 1.1
0.61147684 2.834686 1.2
0.61147684 2.834686 1.3
0.61147684 2.834686 1.4
0.61147684 2.834686 1.5
0.61147684 2.834686 1.6
0.61147684 2.834686 1.7
0.61147684 2.834686 1.8
0.61147684 2.834686 1.9
0.61147684 2.834686 2
0.61147684 2.834686 2.0999999
0.61147684 2.834686 2.2
0.61147684 2.834686 2.3
0.61147684 2.834686 2.4000001
0.61147684 2.834686 2.5
0.61147684 2.834686 2.5999999
0.61147684 2.834686 2.7
0.61147684 2.834686 2.8
0.61147684 2.834686 2.9000001
0.61147684 2.834686 3
0.61147684 2.834686 3.0999999
0.61147684 2.834686 3.2
0.61147684 2.834686 3.3
0.61147684 2.834686 3.4000001
0.64949828 2.927176 -0.5
0.64949828 2.927176 -0.40000001
0.64949828 2.927176 -0.30000001
0.64949828 2.927176 -0.2
0.64949828 2.927176 -0.1
0.64949828 2.927176 -2.7755576e-17
0.64949828 2.927176 0.1
0.64949828 2.927176 0.2
0.64949828 2.927176 0.30000001
0.64949828 2.927176 0.40000001
0.64949828 2.927176 0.5
0.64949828 2.927176 0.60000002
0.64949828 2.927176 0.69999999
0.64949828 2.927176 0.80000001
0.64949828 2.927176 0.89999998
0.64949828 2.927176 1
0.64949828 2.927176 1.1
0.64949828 2.927176 1.2
0.64949828 2.927176 1.3
0.64949828 2.927176 1.4
0.64949828 2.927176 1.5
0.64949828 2.927176 1.6
0.64949828 2.927176 1.7
0.64949828 2.927176 1.8
0.64949828 2.927176 1.9
0.64949828 2.927176 2
0.64949828 2.927176 2.0999999
0.64949828 2.927176 2.2
0.64949828 2.927176 2.3
0.64949828 2.927176 2.4000001
0.64949828 2.927176 2.5
0.64949828 2.927176 2.5999999
0.64949828 2.927176 2.7
0.64949828 2.927176 2.8
0.64949828 2.927176 2.9000001
0.64949828 2.927176 3
0.64949828 2.927176 3.0999999
0.64949828 2.927176 3.2
0.64949828 2.927176 3.3
0.64949828 2.927176 3.4000001
0.68751973 3.0196657 -0.5
0.68751973 3.0196657 -0.40000001
0.68751973 3.0196657 -0.30000001
0.68751973 3.0196657 -0.2
0.68751973 3.0196657 -0.1
0.68751973 3.0196657 -2.7755576e-17
0.68751973 3.0196657 0.1
0.68751973 3.0196657 0.2
0.68751973 3.0196657 0.30000001
0.68751973 3.0196657 0.40000001
0.68751973 3.0196657 0.5
0.68751973 3.0196657 0.60000002
0.68751973 3.0196657 0.69999999
0.68751973 3.0196657 0.80000001
0.68751973 3.0196657 0.89999998
0.68751973 3.0196657 1
0.68751973 3.0196657 1.1
0.68751973 3.0196657 1.2
0.68751973 3.0196657 1.3
0.68751973 3.0196657 1.4
0.68751973 3.0196657 1.5
0.68751973 3.0196657 1.6
0.68751973 3.0196657 1.7
0.68751973 3.0196657 1.8
0.68751973 3.0196657 1.9
0.68751973 3.0196657 2
0.68751973 3.0196657 2.0999999
0.68751973 3.0196657 2.2
0.68751973 3.0196657 2.3
0.68751973 3.0196657 2.4000001
0.68751973 3.0196657 2.5
0.68751973 3.0196657 2.5999999
0.68751973 3.0196657 2.7
0.68751973 3.0196657 2.8
0.68751973 3.0196657 2.9000001
0.68751973 3.0196657 3
0.68751973 3.0196657 3.0999999
0.68751973 3.0196657 3.2
0.68751973 3.0196657 3.3
0.68751973 3.0196657 3.4000001
0.66594517 2.7041748 -0.5
0.66594517 2.7041748 -0.40000001
0.66594517 2.7041748 -0.30000001
0.66594517 2.7041748 -0.2
0.66594517 2.7041748 -0.1
0.66594517 2.7041748 -2.7755576e-17
0.66594517 2.7041748 0.1
0.66594517 2.7041748 0.2
0.66594517 2.7041748 0.30000001
0.66594517 2.7041748 0.40000001
0.66594517 2.7041748 0.5
0.66594517 2.7041748 0.60000002
0.66594517 2.7041748 0.69999999
0.66594517 2.7041748 0.80000001
0.66594517 2.7041748 0.89999998
0.66594517 2.7041748 1
0.66594517 2.7041748 1.1
0.66594517 2.7041748 1.2
0.66594517 2.7041748 1.3
0.66594517 2.7041748 1.4
0.66594517 2.7041748 1.5
0.66594517 2.7041748 1.6
0.66594517 2.7041748 1.7
0.66594517 2.7041748 1.8
0.66594517 2.7041748 1.9
0.66594517 2.7041748 2
0.66594517 2.7041748 2.0999999
0.66594517 2.7041748 2.2
0.66594517 2.7041748 2.3
0.66594517 2.7041748 2.4000001
0.66594517 2.7041748 2.5
0.66594517 2.7041748 2.5999999
0.66594517 2.7041748 2.7
0.66594517 2.7041748 2.8
0.66594517 2.7041748 2.9000001
0.66594517 2.7041748 3
0.66594517 2.7041748 3.0999999
0.66594517 2.7041748 3.2
0.66594517 2.7041748 3.3
0.66594517 2.7041748 3.4000001
0.70396662 2.7966647 -0.5
0.70396662 2.7966647 -0.40000001
0.70396662 2.7966647 -0.30000001
0.70396662 2.7966647 -0.2
0.70396662 2.7966647 -0.1
0.70396662 2.7966647 -2.7755576e-17
0.70396662 2.7966647 0.1
0.70396662 2.7966647 0.2
0.70396662 2.7966647 0.30000001
0.70396662 2.7966647 0.40000001
0.70396662 2.7966647 0.5
0.70396662 2.7966647 0.60000002
0.70396662 2.7966647 0.69999999
0.70396662 2.7966647 0.80000001
0.70396662 2.7966647 0.89999998
0.70396662 2.7966647 1
0.70396662 2.7966647 1.1
0.70396662 2.7966647 1.2
0.70396662 2.7966647 1.3
0.70396662 2.7966647 1.4
0.70396662 2.7966647 1.5
0.70396662 2.7966647 1.6
0.70396662 2.7966647 1.7
0.70396662 2.7966647 1.8
0.70396662 2.7966647 1.9
0.70396662 2.7966647 2
0.70396662 2.7966647 2.0999999
0.70396662 2.7966647 2.2
0.70396662 2.7966647 2.3
0.70396662 2.7966647 2.4000001
0.70396662 2.7966647 2.5
0.70396662 2.7966647 2.5999999
0.70396662 2.7966647 2.7
0.70396662 2.7966647 2.8
0.70396662 2.7966647 2.9000001
0.70396662 2.7966647 3
0.70396662 2.7966647 3.0999999
0.70396662 2.7966647 3.2
0.70396662 2.7966647 3.3
0.70396662 2.7966647 3.4000001
0.74198812 2.8891544 -0.5
0.74198812 2.8891544 -0.40000001
0.74198812 2.8891544 -0.30000001
0.74198812 2.8891544 -0.2
0.74198812 2.8891544 -0.1
0.74198812 2.8891544 -2.7755576e-17
0.74198812 2.8891544 0.1
0.74198812 2.8891544 0.2
0.74198812 2.8891544 0.30000001
0.74198812 2.8891544 0.40000001
0.74198812 2.8891544 0.5
0.74198812 2.8891544 0.60000002
0.74198812 2.8891544 0.69999999
0.74198812 2.8891544 0.80000001
0.74198812 2.8891544 0.89999998
0.74198812 2.8891544 1
0.74198812 2.8891544 1.1
0.74198812 2.8891544 1.2
0.74198812 2.8891544 1.3
0.74198812 2.8891544 1.4
0.74198812 2.8891544 1.5
0.74198812 2.8891544 1.6
0.74198812 2.8891544 1.7
0.74198812 2.8891544 1.8
0.74198812 2.8891544 1.9
0.74198812 2.8891544 2
0.74198812 2.8891544 2.0999999
0.74198812 2.8891544 2.2
0.74198812 2.8891544 2.3
0.74198812 2.8891544 2.4000001
0.74198812 2.8891544 2.5
0.74198812 2.8891544 2.5999999
0.74198812 2.8891544 2.7
0.74198812 2.8891544 2.8
0.74198812 2.8891544 2.9000001
0.74198812 2.8891544 3
0.74198812 2.8891544 3.0999999
0.74198812 2.8891544 3.2
0.74198812 2.8891544 3.3
0.74198812 2.8891544 3.4000001
0.78000957 2.9816444 -0.5
0.78000957 2.9816444 -0.40000001
0.78000957 2.9816444 -0.30000001
0.78000957 2.9816444 -0.2
0.78000957 2.9816444 -0.1
0.78000957 2.9816444 -2.7755576e-17
0.78000957 2.9816444 0.1
0.78000957 2.9816444 0.2
0.78000957 2.9816444 0.30000001
0.78000957 2.9816444 0.40000001
0.78000957 2.9816444 0.5
0.78000957 2.9816444 0.60000002
0.78000957 2.9816444 0.69999999
0.78000957 2.9816444 0.80000001
0.78000957 2.9816444 0.89999998
0.78000957 2.9816444 1
0.78000957 2.9816444 1.1
0.78000957 2.9816444 1.2
0.78000957 2.9816444 1.3
0.78000957 2.9816444 1.4
0.78000957 2.9816444 1.5
0.78000957 2.9816444 1.6
0.78000957 2.9816444 1.7
0.78000957 2.9816444 1.8
0.78000957 2.9816444 1.9
0.78000957 2.9816444 2
0.78000957 2.9816444 2.0999999
0.78000957 2.9816444 2.2
0.78000957 2.9816444 2.3
0.78000957 2.9816444 2.4000001
0.78000957 2.9816444 2.5
0.78000957 2.9816444 2.5999999
0.78000957 2.9816444 2.7
0.78000957 2.9816444 2.8
0.78000957 2.9816444 2.9000001
0.78000957 2.9816444 3
0.78000957 2.9816444 3.0999999
0.78000957 2.9816444 3.2
0.78000957 2.9816444 3.3
0.78000957 2.9816444 3.4000001
0.75843501 2.6661534 -0.5
0.75843501 2.6661534 -0.40000001
0.75843501 2.6661534 -0.30000001
0.75843501 2.6661534 -0.2
0.75843501 2.6661534 -0.1
0.75843501 2.6661534 -2.7755576e-17
0.75843501 2.6661534 0.1
0.75843501 2.6661534 0.2
0.75843501 2.6661534 0.30000001
0.75843501 2.6661534 0.40000001
0.75843501 2.6661534 0.5
0.75843501 2.6661534 0.60000002
0.75843501 2.6661534 0.69999999
0.75843501 2.6661534 0.80000001
0.75843501 2.6661534 0.89999998
0.75843501 2.6661534 1
0.75843501 2.6661534 1.1
0.75843501 2.6661534 1.2
0.75843501 2.6661534 1.3
0.75843501 2.6661534 1.4
0.75843501 2.6661534 1.5
0.75843501 2.6661534 1.6
0.75843501 2.6661534 1.7
0.75843501 2.6661534 1.8
0.75843501 2.6661534 1.9
0.75843501 2.6661534 2
0.75843501 2.6661534 2.0999999
0.75843501 2.6661534 2.2
0.75843501 2.6661534 2.3
0.75843501 2.6661534 2.4000001
0.75843501 2.6661534 2.5
0.75843501 2.6661534 2.5999999
0.75843501 2.6661534 2.7
0.75843501 2.6661534 2.8
0.75843501 2.6661534 2.9000001
0.75843501 2.6661534 3
0.75843501 2.6661534 3.0999999
0.75843501 2.6661534 3.2
0.75843501 2.6661534 3.3
0.75843501 2.6661534 3.4000001
0.79645646 2.7586432 -0.5
0.79645646 2.7586432 -0.40000001
0.79645646 2.7586432 -0.30000001
0.79645646 2.7586432 -0.2
0.79645646 2.7586432 -0.1
0.79645646 2.7586432 -2.7755576e-17
0.79645646 2.7586432 0.1
0.79645646 2.7586432 0.2
0.79645646 2.7586432 0.30000001
0.79645646 2.7586432 0.40000001
0.79645646 2.7586432 0.5
0.79645646 2.7586432 0.60000002
0.79645646 2.7586432 0.69999999
0.79645646 2.7586432 0.80000001
0.79645646 2.7586432 0.89999998
0.79645646 2.7586432 1
0.79645646 2.7586432 1.1
0.79645646 2.7586432 1.2
0.79645646 2.7586432 1.3
0.79645646 2.7586432 1.4
0.79645646 2.7586432 1.5
0.79645646 2.7586432 1.6
0.79645646 2.7586432 1.7
0.79645646 2.7586432 1.8
0.79645646 2.7586432 1.9
0.79645646 2.7586432 2
0.79645646 2.7586432 2.0999999
0.79645646 2.7586432 2.2
0.79645646 2.7586432 2.3
0.79645646 2.7586432 2.4000001
0.79645646 2.7586432 2.5
0.79645646 2.7586432 2.5999999
0.79645646 2.7586432 2.7
0.79645646 2.7586432 2.8
0.79645646 2.7586432 2.9000001
0.79645646 2.7586432 3
0.79645646 2.7586432 3.0999999
0.79645646 2.7586432 3.2
0.79645646 2.7586432 3.3
0.79645646 2.7586432 3.4000001
0.8344779 2.8511331 -0.5
0.8344779 2.8511331 -0.40000001
0.8344779 2.8511331 -0.30000001
0.8344779 2.8511331 -0.2
0.8344779 2.8511331 -0.1
0.8344779 2.8511331 -2.7755576e-17
0.8344779 2.8511331 0.1
0.8344779 2.8511331 0.2
0.8344779 2.8511331 0.30000001
0.8344779 2.8511331 0.40000001
0.8344779 2.8511331 0.5
0.8344779 2.8511331 0.60000002
0.8344779 2.8511331 0.69999999
0.8344779 2.8511331 0.80000001
0.8344779 2.8511331 0.89999998
0.8344779 2.8511331 1
0.8344779 2.8511331 1.1
0.8344779 2.8511331 1.2
0.8344779 2.8511331 1.3
0.8344779 2.8511331 1.4
0.8344779 2.8511331 1.5
0.8344779 2.8511331 1.6
0.8344779 2.8511331 1.7
0.8344779 2.8511331 1.8
0.8344779 2.8511331 1.9
0.8344779 2.8511331 2
0.8344779 2.8511331 2.0999999
0.8344779 2.8511331 2.2
0.8344779 2.8511331 2.3
0.8344779 2.8511331 2.4000001
0.8344779 2.8511331 2.5
0.8344779 2.8511331 2.5999999
0.8344779 2.8511331 2.7
0.8344779 2.8511331 2.8
0.8344779 2.8511331 2.9000001
0.8344779 2.8511331 3
0.8344779 2.8511331 3.0999999
0.8344779 2.8511331 3.2
0.8344779 2.8511331 3.3
0.8344779 2.8511331 3.4000001
0.87249941 2.9436228 -0.5
0.87249941 2.9436228 -0.40000001
0.87249941 2.9436228 -0.30000001
0.87249941 2.9436228 -0.2
0.87249941 2.9436228 -0.1
0.87249941 2.9436228 -2.7755576e-17
0.87249941 2.9436228 0.1
0.87249941 2.9436228 0.2
0.87249941 2.9436228 0.30000001
0.87249941 2.9436228 0.40000001
0.87249941 2.9436228 0.5
0.87249941 2.9436228 0.60000002
0.87249941 2.9436228 0.69999999
0.87249941 2.9436228 0.80000001
0.87249941 2.9436228 0.89999998
0.87249941 2.9436228 1
0.87249941 2.9436228 1.1
0.87249941 2.9436228 1.2
0.87249941 2.9436228 1.3
0.87249941 2.9436228 1.4
0.87249941 2.9436228 1.5
0.87249941 2.9436228 1.6
0.87249941 2.9436228 1.7
0.87249941 2.9436228 1.8
0.87249941 2.9436228 1.9
0.87249941 2.9436228 2
0.87249941 2.9436228 2.0999999
0.87249941 2.9436228 2.2
0.87249941 2.9436228 2.3
0.87249941 2.9436228 2.4000001
0.87249941 2.9436228 2.5
0.87249941 2.9436228 2.5999999
0.87249941 2.9436228 2.7
0.87249941 2.9436228 2.8
0.87249941 2.9436228 2.9000001
0.87249941 2.9436228 3
0.87249941 2.9436228 3.0999999
0.87249941 2.9436228 3.2
0.87249941 2.9436228 3.3
0.87249941 2.9436228 3.4000001
0.85092485 2.6281319 -0.5
0.85092485 2.6281319 -0.40000001
0.85092485 2.6281319 -0.30000001
0.85092485 2.6281319 -0.2
0.85092485 2.6281319 -0.1
0.85092485 2.6281319 -2.7755576e-17
0.85092485 2.6281319 0.1
0.85092485 2.6281319 0.2
0.85092485 2.6281319 0.30000001
0.85092485 2.6281319 0.40000001
0.85092485 2.6281319 0.5
0.85092485 2.6281319 0.60000002
0.85092485 2.6281319 0.69999999
0.85092485 2.6281319 0.80000001
0.85092485 2.6281319 0.89999998
0.85092485 2.6281319 1
0.85092485 2.6281319 1.1
0.85092485 2.6281319 1.2
0.85092485 2.6281319 1.3
0.85092485 2.6281319 1.4
0.85092485 2.6281319 1.5
0.85092485 2.6281319 1.6
0.85092485 2.6281319 1.7
0.85092485 2.6281319 1.8
0.85092485 2.6281319 1.9
0.85092485 2.6281319 2
0.85092485 2.6281319 2.0999999
0.85092485 2.6281319 2.2
0.85092485 2.6281319 2.3
0.85092485 2.6281319 2.4000001
0.85092485 2.6281319 2.5
0.85092485 2.6281319 2.5999999
0.85092485 2.6281319 2.7
0.85092485 2.6281319 2.8
0.85092485 2.6281319 2.9000001
0.85092485 2.6281319 3
0.85092485 2.6281319 3.0999999
0.85092485 2.6281319 3.2
0.85092485 2.6281319 3.3
0.85092485 2.6281319 3.4000001
0.88894629 2.7206218 -0.5
0.88894629 2.7206218 -0.40000001
0.88894629 2.7206218 -0.30000001
0.88894629 2.7206218 -0.2
0.88894629 2.7206218 -0.1
0.88894629 2.7206218 -2.7755576e-17
0.88894629 2.7206218 0.1
0.88894629 2.7206218 0.2
0.88894629 2.7206218 0.30000001
0.88894629 2.7206218 0.40000001
0.88894629 2.7206218 0.5
0.88894629 2.7206218 0.60000002
0.88894629 2.7206218 0.69999999
0.88894629 2.7206218 0.80000001
0.88894629 2.7206218 0.89999998
0.88894629 2.7206218 1
0.88894629 2.7206218 1.1
0.88894629 2.7206218 1.2
0.88894629 2.7206218 1.3
0.88894629 2.7206218 1.4
0.88894629 2.7206218 1.5
0.88894629 2.7206218 1.6
0.88894629 2.7206218 1.7
0.88894629 2.7206218 1.8
0.88894629 2.7206218 1.9
0.88894629 2.7206218 2
0.88894629 2.7206218 2.0999999
0.88894629 2.7206218 2.2
0.88894629 2.7206218 2.3
0.88894629 2.7206218 2.4000001
0.88894629 2.7206218 2.5
0.88894629 2.7206218 2.5999999
0.88894629 2.7206218 2.7
0.88894629 2.7206218 2.8
0.88894629 2.7206218 2.9000001
0.88894629 2.7206218 3
0.88894629 2.7206218 3.0999999
0.88894629 2.7206218 3.2
0.88894629 2.7206218 3.3
0.88894629 2.7206218 3.4000001
0.92696774 2.8131115 -0.5
0.92696774 2.8131115 -0.40000001
0.92696774 2.8131115 -0.30000001
0.92696774 2.8131115 -0.2
0.92696774 2.8131115 -0.1
0.92696774 2.8131115 -2.7755576e-17
0.92696774 2.8131115 0.1
0.92696774 2.8131115 0.2
0.92696774 2.8131115 0.30000001
0.92696774 2.8131115 0.40000001
0.92696774 2.8131115 0.5
0.92696774 2.8131115 0.60000002
0.92696774 2.8131115 0.69999999
0.92696774 2.8131115 0.80000001
0.92696774 2.8131115 0.89999998
0.92696774 2.8131115 1
0.92696774 2.8131115 1.1
0.92696774 2.8131115 1.2
0.92696774 2.8131115 1.3
0.92696774 2.8131115 1.4
0.92696774 2.8131115 1.5
0.92696774 2.8131115 1.6
0.92696774 2.8131115 1.7
0.92696774 2.8131115 1.8
0.92696774 2.8131115 1.9
0.92696774 2.8131115 2
0.92696774 2.8131115 2.0999999
0.92696774 2.8131115 2.2
0.92696774 2.8131115 2.3
0.92696774 2.8131115 2.4000001
0.92696774 2.8131115 2.5
0.92696774 2.8131115 2.5999999
0.92696774 2.8131115 2.7
0.92696774 2.8131115 2.8
0.92696774 2.8131115 2.9000001
0.92696774 2.8131115 3
0.92696774 2.8131115 3.0999999
0.92696774 2.8131115 3.2
0.92696774 2.8131115 3.3
0.92696774 2.8131115 3.4000001
0.96498919 2.9056015 -0.5
0.96498919 2.9056015 -0.40000001
0.96498919 2.9056015 -0.30000001
0.96498919 2.9056015 -0.2
0.96498919 2.9056015 -0.1
0.96498919 2.9056015 -2.7755576e-17
0.96498919 2.9056015 0.1
0.96498919 2.9056015 0.2
0.96498919 2.9056015 0.30000001
0.96498919 2.9056015 0.40000001
0.96498919 2.9056015 0.5
0.96498919 2.9056015 0.60000002
0.96498919 2.9056015 0.69999999
0.96498919 2.9056015 0.80000001
0.96498919 2.9056015 0.89999998
0.96498919 2.9056015 1
0.96498919 2.9056015 1.1
0.96498919 2.9056015 1.2
0.96498919 2.9056015 1.3
0.96498919 2.9056015 1.4
0.96498919 2.9056015 1.5
0.96498919 2.9056015 1.6
0.96498919 2.9056015 1.7
0.96498919 2.9056015 1.8
0.96498919 2.9056015 1.9
0.96498919 2.9056015 2
0.96498919 2.9056015 2.0999999
0.96498919 2.9056015 2.2
0.96498919 2.9056015 2.3
0.96498919 2.9056015 2.4000001
0.96498919 2.9056015 2.5
0.96498919 2.9056015 2.5999999
0.96498919 2.9056015 2.7
0.96498919 2.9056015 2.8
0.96498919 2.9056015 2.9000001
0.96498919 2.9056015 3
0.96498919 2.9056015 3.0999999
0.96498919 2.9056015 3.2
0.96498919 2.9056015 3.3
0.96498919 2.9056015 3.4000001
0.94341469 2.5901105 -0.5
0.94341469 2.5901105 -0.40000001
0.94341469 2.5901105 -0.30000001
0.94341469 2.5901105 -0.2
0.94341469 2.5901105 -0.1
0.94341469 2.5901105 -2.7755576e-17
0.94341469 2.5901105 0.1
0.94341469 2.5901105 0.2
0.94341469 2.5901105 0.30000001
0.94341469 2.5901105 0.40000001
0.94341469 2.5901105 0.5
0.94341469 2.5901105 0.60000002
0.94341469 2.5901105 0.69999999
0.94341469 2.5901105 0.80000001
0.94341469 2.5901105 0.89999998
0.94341469 2.5901105 1
0.94341469 2.5901105 1.1
0.94341469 2.5901105 1.2
0.94341469 2.5901105 1.3
0.94341469 2.5901105 1.4
0.94341469 2.5901105 1.5
0.94341469 2.5901105 1.6
0.94341469 2.5901105 1.7
0.94341469 2.5901105 1.8
0.94341469 2.5901105 1.9
0.94341469 2.5901105 2
0.94341469 2.5901105 2.0999999
0.94341469 2.5901105 2.2
0.94341469 2.5901105 2.3
0.94341469 2.5901105 2.4000001
0.94341469 2.5901105 2.5
0.94341469 2.5901105 2.5999999
0.94341469 2.5901105 2.7
0.94341469 2.5901105 2.8
0.94341469 2.5901105 2.9000001
0.94341469 2.5901105 3
0.94341469 2.5901105 3.0999999
0.94341469 2.5901105 3.2
0.94341469 2.5901105 3.3
0.94341469 2.5901105 3.4000001
0.98143613 2.6826003 -0.5
0.98143613 2.6826003 -0.40000001
0.98143613 2.6826003 -0.30000001
0.98143613 2.6826003 -0.2
0.98143613 2.6826003 -0.1
0.98143613 2.6826003 -2.7755576e-17
0.98143613 2.6826003 0.1
0.98143613 2.6826003 0.2
0.98143613 2.6826003 0.30000001
0.98143613 2.6826003 0.40000001
0.98143613 2.6826003 0.5
0.98143613 2.6826003 0.60000002
0.98143613 2.6826003 0.69999999
0.98143613 2.6826003 0.80000001
0.98143613 2.6826003 0.89999998
0.98143613 2.6826003 1
0.98143613 2.6826003 1.1
0.98143613 2.6826003 1.2
0.98143613 2.6826003 1.3
0.98143613 2.6826003 1.4
0.98143613 2.6826003 1.5
0.98143613 2.6826003 1.6
0.98143613 2.6826003 1.7
0.98143613 2.6826003 1.8
0.98143613 2.6826003 1.9
0.98143613 2.6826003 2
0.98143613 2.6826003 2.0999999
0.98143613 2.6826003 2.2
0.98143613 2.6826003 2.3
0.98143613 2.6826003 2.4000001
0.98143613 2.6826003 2.5
0.98143613 2.6826003 2.5999999
0.98143613 2.6826003 2.7
0.98143613 2.6826003 2.8
0.98143613 2.6826003 2.9000001
0.98143613 2.6826003 3
0.98143613 2.6826003 3.0999999
0.98143613 2.6826003 3.2
0.98143613 2.6826003 3.3
0.98143613 2.6826003 3.4000001
1.0194576 2.7750902 -0.5
1.0194576 2.7750902 -0.40000001
1.0194576 2.7750902 -0.30000001
1.0194576 2.7750902 -0.2
1.0194576 2.7750902 -0.1
1.0194576 2.7750902 -2.7755576e-17
1.0194576 2.7750902 0.1
1.0194576 2.7750902 0.2
1.0194576 2.7750902 0.30000001
1.0194576 2.7750902 0.40000001
1.0194576 2.7750902 0.5
1.0194576 2.7750902 0.60000002
1.0194576 2.7750902 0.69999999
1.0194576 2.7750902 0.80000001
1.0194576 2.7750902 0.89999998
1.0194576 2.7750902 1
1.0194576 2.7750902 1.1
1.0194576 2.7750902 1.2
1.0194576 2.7750902 1.3
1.0194576 2.7750902 1.4
1.0194576 2.7750902 1.5
1.0194576 2.7750902 1.6
1.0194576 2.7750902 1.7
1.0194576 2.7750902 1.8
1.0194576 2.7750902 1.9
1.0194576 2.7750902 2
1.0194576 2.7750902 2.0999999
1.0194576 2.7750902 2.2
1.0194576 2.7750902 2.3
1.0194576 2.7750902 2.4000001
1.0194576 2.7750902 2.5
1.0194576 2.7750902 2.5999999
1.0194576 2.7750902 2.7
1.0194576 2.7750902 2.8
1.0194576 2.7750902 2.9000001
1.0194576 2.7750902 3
1.0194576 2.7750902 3.0999999
1.0194576 2.7750902 3.2
1.0194576 2.7750902 3.3
1.0194576 2.7750902 3.4000001
1.057479 2.8675799 -0.5
1.057479 2.8675799 -0.40000001
1.057479 2.8675799 -0.30000001
1.057479 2.8675799 -0.2
1.057479 2.8675799 -0.1
1.057479 2.8675799 -2.7755576e-17
1.057479 2.8675799 0.1
1.057479 2.8675799 0.2
1.057479 2.8675799 0.30000001
1.057479 2.8675799 0.40000001
1.057479 2.8675799 0.5
1.057479 2.8675799 0.60000002
1.057479 2.8675799 0.69999999
1.057479 2.8675799 0.80000001
1.057479 2.8675799 0.89999998
1.057479 2.8675799 1
1.057479 2.8675799 1.1
1.057479 2.8675799 1.2
1.057479 2.8675799 1.3
1.057479 2.8675799 1.4
1.057479 2.8675799 1.5
1.057479 2.8675799 1.6
1.057479 2.8675799 1.7
1.057479 2.8675799 1.8
1.057479 2.8675799 1.9
1.057479 2.8675799 2
1.057479 2.8675799 2.0999999
1.057479 2.8675799 2.2
1.057479 2.8675799 2.3
1.057479 2.8675799 2.4000001
1.057479 2.8675799 2.5
1.057479 2.8675799 2.5999999
1.057479 2.8675799 2.7
1.057479 2.8675799 2.8
1.057479 2.8675799 2.9000001
1.057479 2.8675799 3
1.057479 2.8675799 3.0999999
1.057479 2.8675799 3.2
1.057479 2.8675799 3.3
1.057479 2.8675799 3.4000001
1.0359045 2.552089 -0.5
1.0359045 2.552089 -0.40000001
1.0359045 2.552089 -0.30000001
1.0359045 2.552089 -0.2
1.0359045 2.552089 -0.1
1.0359045 2.552089 -2.7755576e-17
1.0359045 2.552089 0.1
1.0359045 2.552089 0.2
1.0359045 2.552089 0.30000001
1.0359045 2.552089 0.40000001
1.0359045 2.552089 0.5
1.0359045 2.552089 0.60000002
1.0359045 2.552089 0.69999999
1.0359045 2.552089 0.80000001
1.0359045 2.552089 0.89999998
1.0359045 2.552089 1
1.0359045 2.552089 1.1
1.0359045 2.552089 1.2
1.0359045 2.552089 1.3
1.0359045 2.552089 1.4
1.0359045 2.552089 1.5
1.0359045 2.552089 1.6
1.0359045 2.552089 1.7
1.0359045 2.552089 1.8
1.0359045 2.552089 1.9
1.0359045 2.552089 2
1.0359045 2.552089 2.0999999
1.0359045 2.552089 2.2
1.0359045 2.552089 2.3
1.0359045 2.552089 2.4000001
1.0359045 2.552089 2.5
1.0359045 2.552089 2.5999999
1.0359045 2.552089 2.7
1.0359045 2.552089 2.8
1.0359045 2.552089 2.9000001
1.0359045 2.552089 3
1.0359045 2.552089 3.0999999
1.0359045 2.552089 3.2
1.0359045 2.552089 3.3
1.0359045 2.552089 3.4000001
1.073926 2.6445789 -0.5
1.073926 2.6445789 -0.40000001
1.073926 2.6445789 -0.30000001
1.073926 2.6445789 -0.2
1.073926 2.6445789 -0.1
1.073926 2.6445789 -2.7755576e-17
1.073926 2.6445789 0.1
1.073926 2.6445789 0.2
1.073926 2.6445789 0.30000001
1.073926 2.6445789 0.40000001
1.073926 2.6445789 0.5
1.073926 2.6445789 0.60000002
1.073926 2.6445789 0.69999999
1.073926 2.6445789 0.80000001
1.073926 2.6445789 0.89999998
1.073926 2.6445789 1
1.073926 2.6445789 1.1
1.073926 2.6445789 1.2
1.073926 2.6445789 1.3
1.073926 2.6445789 1.4
1.073926 2.6445789 1.5
1.073926 2.6445789 1.6
1.073926 2.6445789 1.7
1.073926 2.6445789 1.8
1.073926 2.6445789 1.9
1.073926 2.6445789 2
1.073926 2.6445789 2.0999999
1.073926 2.6445789 2.2
1.073926 2.6445789 2.3
1.073926 2.6445789 2.4000001
1.073926 2.6445789 2.5
1.073926 2.6445789 2.5999999
1.073926 2.6445789 2.7
1.073926 2.6445789 2.8
1.073926 2.6445789 2.9000001
1.073926 2.6445789 3
1.073926 2.6445789 3.0999999
1.073926 2.6445789 3.2
1.073926 2.6445789 3.3
1.073926 2.6445789 3.4000001
1.1119474 2.7370687 -0.5
1.1119474 2.7370687 -0.40000001
1.1119474 2.7370687 -0.30000001
1.1119474 2.7370687 -0.2
1.1119474 2.7370687 -0.1
1.1119474 2.7370687 -2.7755576e-17
1.1119474 2.7370687 0.1
1.1119474 2.7370687 0.2
1.1119474 2.7370687 0.30000001
1.1119474 2.7370687 0.40000001
1.1119474 2.7370687 0.5
1.1119474 2.7370687 0.60000002
1.1119474 2.7370687 0.69999999
1.1119474 2.7370687 0.80000001
1.1119474 2.7370687 0.89999998
1.1119474 2.7370687 1
1.1119474 2.7370687 1.1
1.1119474 2.7370687 1.2
1.1119474 2.7370687 1.3
1.1119474 2.7370687 1.4
1.1119474 2.7370687 1.5
1.1119474 2.7370687 1.6
1.1119474 2.7370687 1.7
1.1119474 2.7370687 1.8
1.1119474 2.7370687 1.9
1.1119474 2.7370687 2
1.1119474 2.7370687 2.0999999
1.1119474 2.7370687 2.2
1.1119474 2.7370687 2.3
1.1119474 2.7370687 2.4000001
1.1119474 2.7370687 2.5
1.1119474 2.7370687 2.5999999
1.1119474 2.7370687 2.7
1.1119474 2.7370687 2.8
1.1119474 2.7370687 2.9000001
1.1119474 2.7370687 3
1.1119474 2.7370687 3.0999999
1.1119474 2.7370687 3.2
1.1119474 2.7370687 3.3
1.1119474 2.7370687 3.4000001
1.1499689 2.8295584 -0.5
1.1499689 2.8295584 -0.40000001
1.1499689 2.8295584 -0.30000001
1.1499689 2.8295584 -0.2
1.1499689 2.8295584 -0.1
1.1499689 2.8295584 -2.7755576e-17
1.1499689 2.8295584 0.1
1.1499689 2.8295584 0.2
1.1499689 2.8295584 0.30000001
1.1499689 2.8295584 0.40000001
1.1499689 2.8295584 0.5
1.1499689 2.8295584 0.60000002
1.1499689 2.8295584 0.69999999
1.1499689 2.8295584 0.80000001
1.1499689 2.8295584 0.89999998
1.1499689 2.8295584 1
1.1499689 2.8295584 1.1
1.1499689 2.8295584 1.2
1.1499689 2.8295584 1.3
1.1499689 2.8295584 1.4
1.1499689 2.8295584 1.5
1.1499689 2.8295584 1.6
1.1499689 2.8295584 1.7
1.1499689 2.8295584 1.8
1.1499689 2.8295584 1.9
1.1499689 2.8295584 2
1.1499689 2.8295584 2.0999999
1.1499689 2.8295584 2.2
1.1499689 2.8295584 2.3
1.1499689 2.8295584 2.4000001
1.1499689 2.8295584 2.5
1.1499689 2.8295584 2.5999999
1.1499689 2.8295584 2.7
1.1499689 2.8295584 2.8
1.1499689 2.8295584 2.9000001
1.1499689 2.8295584 3
1.1499689 2.8295584 3.0999999
1.1499689 2.8295584 3.2
1.1499689 2.8295584 3.3
1.1499689 2.8295584 3.4000001
1.1283944 2.5140676 -0.5
1.1283944 2.5140676 -0.40000001
1.1283944 2.5140676 -0.30000001
1.1283944 2.5140676 -0.2
1.1283944 2.5140676 -0.1
1.1283944 2.5140676 -2.7755576e-17
1.1283944 2.5140676 0.1
1.1283944 2.5140676 0.2
1.1283944 2.5140676 0.30000001
1.1283944 2.5140676 0.40000001
1.1283944 2.5140676 0.5
1.1283944 2.5140676 0.60000002
1.1283944 2.5140676 0.69999999
1.1283944 2.5140676 0.80000001
1.1283944 2.5140676 0.89999998
1.1283944 2.5140676 1
1.1283944 2.5140676 1.1
1.1283944 2.5140676 1.2
1.1283944 2.5140676 1.3
1.1283944 2.5140676 1.4
1.1283944 2.5140676 1.5
1.1283944 2.5140676 1.6
1.1283944 2.5140676 1.7
1.1283944 2.5140676 1.8
1.1283944 2.5140676 1.9
1.1283944 2.5140676 2
1.1283944 2.5140676 2.0999999
1.1283944 2.5140676 2.2
1.1283944 2.5140676 2.3
1.1283944 2.5140676 2.4000001
1.1283944 2.5140676 2.5
1.1283944 2.5140676 2.5999999
1.1283944 2.5140676 2.7
1.1283944 2.5140676 2.8
1.1283944 2.5140676 2.9000001
1.1283944 2.5140676 3
1.1283944 2.5140676 3.0999999
1.1283944 2.5140676 3.2
1.1283944 2.5140676 3.3
1.1283944 2.5140676 3.4000001
1.1664158 2.6065574 -0.5
1.1664158 2.6065574 -0.40000001
1.1664158 2.6065574 -0.30000001
1.1664158 2.6065574 -0.2
1.1664158 2.6065574 -0.1
1.1664158 2.6065574 -2.7755576e-17
1.1664158 2.6065574 0.1
1.1664158 2.6065574 0.2
1.1664158 2.6065574 0.30000001
1.1664158 2.6065574 0.40000001
1.1664158 2.6065574 0.5
1.1664158 2.6065574 0.60000002
1.1664158 2.6065574 0.69999999
1.1664158 2.6065574 0.80000001
1.1664158 2.6065574 0.89999998
1.1664158 2.6065574 1
1.1664158 2.6065574 1.1
1.1664158 2.6065574 1.2
1.1664158 2.6065574 1.3
1.1664158 2.6065574 1.4
1.1664158 2.6065574 1.5
1.1664158 2.6065574 1.6
1.1664158 2.6065574 1.7
1.1664158 2.6065574 1.8
1.1664158 2.6065574 1.9
1.1664158 2.6065574 2
1.1664158 2.6065574 2.0999999
1.1664158 2.6065574 2.2
1.1664158 2.6065574 2.3
1.1664158 2.6065574 2.4000001
1.1664158 2.6065574 2.5
1.1664158 2.6065574 2.5999999
1.1664158 2.6065574 2.7
1.1664158 2.6065574 2.8
1.1664158 2.6065574 2.9000001
1.1664158 2.6065574 3
1.1664158 2.6065574 3.0999999
1.1664158 2.6065574 3.2
1.1664158 2.6065574 3.3
1.1664158 2.6065574 3.4000001
1.2044373 2.6990471 -0.5
1.2044373 2.6990471 -0.40000001
1.2044373 2.6990471 -0.30000001
1.2044373 2.6990471 -0.2
1.2044373 2.6990471 -0.1
1.2044373 2.6990471 -2.7755576e-17
1.2044373 2.6990471 0.1
1.2044373 2.6990471 0.2
1.2044373 2.6990471 0.30000001
1.2044373 2.6990471 0.40000001
1.2044373 2.6990471 0.5
1.2044373 2.6990471 0.60000002
1.2044373 2.6990471 0.69999999
1.2044373 2.6990471 0.80000001
1.2044373 2.6990471 0.89999998
1.2044373 2.6990471 1
1.2044373 2.6990471 1.1
1.2044373 2.6990471 1.2
1.2044373 2.6990471 1.3
1.2044373 2.6990471 1.4
1.2044373 2.6990471 1.5
1.2044373 2.6990471 1.6
1.2044373 2.6990471 1.7
1.2044373 2.6990471 1.8
1.2044373 2.6990471 1.9
1.2044373 2.6990471 2
1.2044373 2.6990471 2.0999999
1.2044373 2.6990471 2.2
1.2044373 2.6990471 2.3
1.2044373 2.6990471 2.4000001
1.2044373 2.6990471 2.5
1.2044373 2.6990471 2.5999999
1.2044373 2.6990471 2.7
1.2044373 2.6990471 2.8
1.2044373 2.6990471 2.9000001
1.2044373 2.6990471 3
1.2044373 2.6990471 3.0999999
1.2044373 2.6990471 3.2
1.2044373 2.6990471 3.3
1.2044373 2.6990471 3.4000001
1.2424587 2.791537 -0.5
1.2424587 2.791537 -0.40000001
1.2424587 2.791537 -0.30000001
1.2424587 2.791537 -0.2
1.2424587 2.791537 -0.1
1.2424587 2.791537 -2.7755576e-17
1.2424587 2.791537 0.1
1.2424587 2.791537 0.2
1.2424587 2.791537 0.30000001
1.2424587 2.791537 0.40000001
1.2424587 2.791537 0.5
1.2424587 2.791537 0.60000002
1.2424587 2.791537 0.69999999
1.2424587 2.791537 0.80000001
1.2424587 2.791537 0.89999998
1.2424587 2.791537 1
1.2424587 2.791537 1.1
1.2424587 2.791537 1.2
1.2424587 2.791537 1.3
1.2424587 2.791537 1.4
1.2424587 2.791537 1.5
1.2424587 2.791537 1.6
1.2424587 2.791537 1.7
1.2424587 2.791537 1.8
1.2424587 2.791537 1.9
1.2424587 2.791537 2
1.2424587 2.791537 2.0999999
1.2424587 2.791537 2.2
1.2424587 2.791537 2.3
1.2424587 2.791537 2.4000001
1.2424587 2.791537 2.5
1.2424587 2.791537 2.5999999
1.2424587 2.791537 2.7
1.2424587 2.791537 2.8
1.2424587 2.791537 2.9000001
1.2424587 2.791537 3
1.2424587 2.791537 3.0999999
1.2424587 2.791537 3.2
1.2424587 2.791537 3.3
1.2424587 2.791537 3.4000001
1.2208842 2.4760461 -0.5
1.2208842 2.4760461 -0.40000001
1.2208842 2.4760461 -0.30000001
1.2208842 2.4760461 -0.2
1.2208842 2.4760461 -0.1
1.2208842 2.4760461 -2.7755576e-17
1.2208842 2.4760461 0.1
1.2208842 2.4760461 0.2
1.2208842 2.4760461 0.30000001
1.2208842 2.4760461 0.40000001
1.2208842 2.4760461 0.5
1.2208842 2.4760461 0.60000002
1.2208842 2.4760461 0.69999999
1.2208842 2.4760461 0.80000001
1.2208842 2.4760461 0.89999998
1.2208842 2.4760461 1
1.2208842 2.4760461 1.1
1.2208842 2.4760461 1.2
1.2208842 2.4760461 1.3
1.2208842 2.4760461 1.4
1.2208842 2.4760461 1.5
1.2208842 2.4760461 1.6
1.2208842 2.4760461 1.7
1.2208842 2.4760461 1.8
1.2208842 2.4760461 1.9
1.2208842 2.4760461 2
1.2208842 2.4760461 2.0999999
1.2208842 2.4760461 2.2
1.2208842 2.4760461 2.3
1.2208842 2.4760461 2.4000001
1.2208842 2.4760461 2.5
1.2208842 2.4760461 2.5999999
1.2208842 2.4760461 2.7
1.2208842 2.4760461 2.8
1.2208842 2.4760461 2.9000001
1.2208842 2.4760461 3
1.2208842 2.4760461 3.0999999
1.2208842 2.4760461 3.2
1.2208842 2.4760461 3.3
1.2208842 2.4760461 3.4000001
1.2589056 2.5685358 -0.5
1.2589056 2.5685358 -0.40000001
1.2589056 2.5685358 -0.30000001
1.2589056 2.5685358 -0.2
1.2589056 2.5685358 -0.1
1.2589056 2.5685358 -2.7755576e-17
1.2589056 2.5685358 0.1
1.2589056 2.5685358 0.2
1.2589056 2.5685358 0.30000001
1.2589056 2.5685358 0.40000001
1.2589056 2.5685358 0.5
1.2589056 2.5685358 0.60000002
1.2589056 2.5685358 0.69999999
1.2589056 2.5685358 0.80000001
1.2589056 2.5685358 0.89999998
1.2589056 2.5685358 1
1.2589056 2.5685358 1.1
1.2589056 2.5685358 1.2
1.2589056 2.5685358 1.3
1.2589056 2.5685358 1.4
1.2589056 2.5685358 1.5
1.2589056 2.5685358 1.6
1.2589056 2.5685358 1.7
1.2589056 2.5685358 1.8
1.2589056 2.5685358 1.9
1.2589056 2.5685358 2
1.2589056 2.5685358 2.0999999
1.2589056 2.5685358 2.2
1.2589056 2.5685358 2.3
1.2589056 2.5685358 2.4000001
1.2589056 2.5685358 2.5
1.2589056 2.5685358 2.5999999
1.2589056 2.5685358 2.7
1.2589056 2.5685358 2.8
1.2589056 2.5685358 2.9000001
1.2589056 2.5685358 3
1.2589056 2.5685358 3.0999999
1.2589056 2.5685358 3.2
1.2589056 2.5685358 3.3
1.2589056 2.5685358 3.4000001
1.2969271 2.6610258 -0.5
1.2969271 2.6610258 -0.40000001
1.2969271 2.6610258 -0.30000001
1.2969271 2.6610258 -0.2
1.2969271 2.6610258 -0.1
1.2969271 2.6610258 -2.7755576e-17
1.2969271 2.6610258 0.1
1.2969271 2.6610258 0.2
1.2969271 2.6610258 0.30000001
1.2969271 2.6610258 0.40000001
1.2969271 2.6610258 0.5
1.2969271 2.6610258 0.60000002
1.2969271 2.6610258 0.69999999
1.2969271 2.6610258 0.80000001
1.2969271 2.6610258 0.89999998
1.2969271 2.6610258 1
1.2969271 2.6610258 1.1
1.2969271 2.6610258 1.2
1.2969271 2.6610258 1.3
1.2969271 2.6610258 1.4
1.2969271 2.6610258 1.5
1.2969271 2.6610258 1.6
1.2969271 2.6610258 1.7
1.2969271 2.6610258 1.8
1.2969271 2.6610258 1.9
1.2969271 2.6610258 2
1.2969271 2.6610258 2.0999999
1.2969271 2.6610258 2.2
1.2969271 2.6610258 2.3
1.2969271 2.6610258 2.4000001
1.2969271 2.6610258 2.5
1.2969271 2.6610258 2.5999999
1.2969271 2.6610258 2.7
1.2969271 2.6610258 2.8
1.2969271 2.6610258 2.9000001
1.2969271 2.6610258 3
1.2969271 2.6610258 3.0999999
1.2969271 2.6610258 3.2
1.2969271 2.6610258 3.3
1.2969271 2.6610258 3.4000001
1.3349485 2.7535155 -0.5
1.3349485 2.7535155 -0.40000001
1.3349485 2.7535155 -0.30000001
1.3349485 2.7535155 -0.2
1.3349485 2.7535155 -0.1
1.3349485 2.7535155 -2.7755576e-17
1.3349485 2.7535155 0.1
1.3349485 2.7535155 0.2
1.3349485 2.7535155 0.30000001
1.3349485 2.7535155 0.40000001
1.3349485 2.7535155 0.5
1.3349485 2.7535155 0.60000002
1.3349485 2.7535155 0.69999999
1.3349485 2.7535155 0.80000001
1.3349485 2.7535155 0.89999998
1.3349485 2.7535155 1
1.3349485 2.7535155 1.1
1.3349485 2.7535155 1.2
1.3349485 2.7535155 1.3
1.3349485 2.7535155 1.4
1.3349485 2.7535155 1.5
1.3349485 2.7535155 1.6
1.3349485 2.7535155 1.7
1.3349485 2.7535155 1.8
1.3349485 2.7535155 1.9
1.3349485 2.7535155 2
1.3349485 2.7535155 2.0999999
1.3349485 2.7535155 2.2
1.3349485 2.7535155 2.3
1.3349485 2.7535155 2.4000001
1.3349485 2.7535155 2.5
1.3349485 2.7535155 2.5999999
1.3349485 2.7535155 2.7
1.3349485 2.7535155 2.8
1.3349485 2.7535155 2.9000001
1.3349485 2.7535155 3
1.3349485 2.7535155 3.0999999
1.3349485 2.7535155 3.2
1.3349485 2.7535155 3.3
1.3349485 2.7535155 3.4000001
1.313374 2.4380245 -0.5
1.313374 2.4380245 -0.40000001
1.313374 2.4380245 -0.30000001
1.313374 2.4380245 -0.2
1.313374 2.4380245 -0.1
1.313374 2.4380245 -2.7755576e-17
1.313374 2.4380245 0.1
1.313374 2.4380245 0.2
1.313374 2.4380245 0.30000001
1.313374 2.4380245 0.40000001
1.313374 2.4380245 0.5
1.313374 2.4380245 0.60000002
1.313374 2.4380245 0.69999999
1.313374 2.4380245 0.80000001
1.313374 2.4380245 0.89999998
1.313374 2.4380245 1
1.313374 2.4380245 1.1
1.313374 2.4380245 1.2
1.313374 2.4380245 1.3
1.313374 2.4380245 1.4
1.313374 2.4380245 1.5
1.313374 2.4380245 1.6
1.313374 2.4380245 1.7
1.313374 2.4380245 1.8
1.313374 2.4380245 1.9
1.313374 2.4380245 2
1.313374 2.4380245 2.0999999
1.313374 2.4380245 2.2
1.313374 2.4380245 2.3
1.313374 2.4380245 2.4000001
1.313374 2.4380245 2.5
1.313374 2.4380245 2.5999999
1.313374 2.4380245 2.7
1.313374 2.4380245 2.8
1.313374 2.4380245 2.9000001
1.313374 2.4380245 3
1.313374 2.4380245 3.0999999
1.313374 2.4380245 3.2
1.313374 2.4380245 3.3
1.313374 2.4380245 3.4000001
1.3513955 2.5305145 -0.5
1.3513955 2.5305145 -0.40000001
1.3513955 2.5305145 -0.30000001
1.3513955 2.5305145 -0.2
1.3513955 2.5305145 -0.1
1.3513955 2.5305145 -2.7755576e-17
1.3513955 2.5305145 0.1
1.3513955 2.5305145 0.2
1.3513955 2.5305145 0.30000001
1.3513955 2.5305145 0.40000001
1.3513955 2.5305145 0.5
1.3513955 2.5305145 0.60000002
1.3513955 2.5305145 0.69999999
1.3513955 2.5305145 0.80000001
1.3513955 2.5305145 0.89999998
1.3513955 2.5305145 1
1.3513955 2.5305145 1.1
1.3513955 2.5305145 1.2
1.3513955 2.5305145 1.3
1.3513955 2.5305145 1.4
1.3513955 2.5305145 1.5
1.3513955 2.5305145 1.6
1.3513955 2.5305145 1.7
1.3513955 2.5305145 1.8
1.3513955 2.5305145 1.9
1.3513955 2.5305145 2
1.3513955 2.5305145 2.0999999
1.3513955 2.5305145 2.2
1.3513955 2.5305145 2.3
1.3513955 2.5305145 2.4000001
1.3513955 2.5305145 2.5
1.3513955 2.5305145 2.5999999
1.3513955 2.5305145 2.7
1.3513955 2.5305145 2.8
1.3513955 2.5305145 2.9000001
1.3513955 2.5305145 3
1.3513955 2.5305145 3.0999999
1.3513955 2.5305145 3.2
1.3513955 2.5305145 3.3
1.3513955 2.5305145 3.4000001
1.3894169 2.6230042 -0.5
1.3894169 2.6230042 -0.40000001
1.3894169 2.6230042 -0.30000001
1.3894169 2.6230042 -0.2
1.3894169 2.6230042 -0.1
1.3894169 2.6230042 -2.7755576e-17
1.3894169 2.6230042 0.1
1.3894169 2.6230042 0.2
1.3894169 2.6230042 0.30000001
1.3894169 2.6230042 0.40000001
1.3894169 2.6230042 0.5
1.3894169 2.6230042 0.60000002
1.3894169 2.6230042 0.69999999
1.3894169 2.6230042 0.80000001
1.3894169 2.6230042 0.89999998
1.3894169 2.6230042 1
1.3894169 2.6230042 1.1
1.3894169 2.6230042 1.2
1.3894169 2.6230042 1.3
1.3894169 2.6230042 1.4
1.3894169 2.6230042 1.5
1.3894169 2.6230042 1.6
1.3894169 2.6230042 1.7
1.3894169 2.6230042 1.8
1.3894169 2.6230042 1.9
1.3894169 2.6230042 2
1.3894169 2.6230042 2.0999999
1.3894169 2.6230042 2.2
1.3894169 2.6230042 2.3
1.3894169 2.6230042 2.4000001
1.3894169 2.6230042 2.5
1.3894169 2.6230042 2.5999999
1.3894169 2.6230042 2.7
1.3894169 2.6230042 2.8
1.3894169 2.6230042 2.9000001
1.3894169 2.6230042 3
1.3894169 2.6230042 3.0999999
1.3894169 2.6230042 3.2
1.3894169 2.6230042 3.3
1.3894169 2.6230042 3.4000001
1.4274384 2.7154942 -0.5
1.4274384 2.7154942 -0.40000001
1.4274384 2.7154942 -0.30000001
1.4274384 2.7154942 -0.2
1.4274384 2.7154942 -0.1
1.4274384 2.7154942 -2.7755576e-17
1.4274384 2.7154942 0.1
1.4274384 2.7154942 0.2
1.4274384 2.7154942 0.30000001
1.4274384 2.7154942 0.40000001
1.4274384 2.7154942 0.5
1.4274384 2.7154942 0.60000002
1.4274384 2.7154942 0.69999999
1.4274384 2.7154942 0.80000001
1.4274384 2.7154942 0.89999998
1.4274384 2.7154942 1
1.4274384 2.7154942 1.1
1.4274384 2.7154942 1.2
1.4274384 2.7154942 1.3
1.4274384 2.7154942 1.4
1.4274384 2.7154942 1.5
1.4274384 2.7154942 1.6
1.4274384 2.7154942 1.7
1.4274384 2.7154942 1.8
1.4274384 2.7154942 1.9
1.4274384 2.7154942 2
1.4274384 2.7154942 2.0999999
1.4274384 2.7154942 2.2
1.4274384 2.7154942 2.3
1.4274384 2.7154942 2.4000001
1.4274384 2.7154942 2.5
1.4274384 2.7154942 2.5999999
1.4274384 2.7154942 2.7
1.4274384 2.7154942 2.8
1.4274384 2.7154942 2.9000001
1.4274384 2.7154942 3
1.4274384 2.7154942 3.0999999
1.4274384 2.7154942 3.2
1.4274384 2.7154942 3.3
1.4274384 2.7154942 3.4000001
1.4058639 2.4000032 -0.5
1.4058639 2.4000032 -0.40000001
1.4058639 2.4000032 -0.30000001
1.4058639 2.4000032 -0.2
1.4058639 2.4000032 -0.1
1.4058639 2.4000032 -2.7755576e-17
1.4058639 2.4000032 0.1
1.4058639 2.4000032 0.2
1.4058639 2.4000032 0.30000001
1.4058639 2.4000032 0.40000001
1.4058639 2.4000032 0.5
1.4058639 2.4000032 0.60000002
1.4058639 2.4000032 0.69999999
1.4058639 2.4000032 0.80000001
1.4058639 2.4000032 0.89999998
1.4058639 2.4000032 1
1.4058639 2.4000032 1.1
1.4058639 2.4000032 1.2
1.4058639 2.4000032 1.3
1.4058639 2.4000032 1.4
1.4058639 2.4000032 1.5
1.4058639 2.4000032 1.6
1.4058639 2.4000032 1.7
1.4058639 2.4000032 1.8
1.4058639 2.4000032 1.9
1.4058639 2.4000032 2
1.4058639 2.4000032 2.0999999
1.4058639 2.4000032 2.2
1.4058639 2.4000032 2.3
1.4058639 2.4000032 2.4000001
1.4058639 2.4000032 2.5
1.4058639 2.4000032 2.5999999
1.4058639 2.4000032 2.7
1.4058639 2.4000032 2.8
1.4058639 2.4000032 2.9000001
1.4058639 2.4000032 3
1.4058639 2.4000032 3.0999999
1.4058639 2.4000032 3.2
1.4058639 2.4000032 3.3
1.4058639 2.4000032 3.4000001
1.4438853 2.4924929 -0.5
1.4438853 2.4924929 -0.40000001
1.4438853 2.4924929 -0.30000001
1.4438853 2.4924929 -0.2
1.4438853 2.4924929 -0.1
1.4438853 2.4924929 -2.7755576e-17
1.4438853 2.4924929 0.1
1.4438853 2.4924929 0.2
1.4438853 2.4924929 0.30000001
1.4438853 2.4924929 0.40000001
1.4438853 2.4924929 0.5
1.4438853 2.4924929 0.60000002
1.4438853 2.4924929 0.69999999
1.4438853 2.4924929 0.80000001
1.4438853 2.4924929 0.89999998
1.4438853 2.4924929 1
1.4438853 2.4924929 1.1
1.4438853 2.4924929 1.2
1.4438853 2.4924929 1.3
1.4438853 2.4924929 1.4
1.4438853 2.4924929 1.5
1.4438853 2.4924929 1.6
1.4438853 2.4924929 1.7
1.4438853 2.4924929 1.8
1.4438853 2.4924929 1.9
1.4438853 2.4924929 2
1.4438853 2.4924929 2.0999999
1.4438853 2.4924929 2.2
1.4438853 2.4924929 2.3
1.4438853 2.4924929 2.4000001
1.4438853 2.4924929 2.5
1.4438853 2.4924929 2.5999999
1.4438853 2.4924929 2.7
1.4438853 2.4924929 2.8
1.4438853 2.4924929 2.9000001
1.4438853 2.4924929 3
1.4438853 2.4924929 3.0999999
1.4438853 2.4924929 3.2
1.4438853 2.4924929 3.3
1.4438853 2.4924929 3.4000001
1.4819068 2.5849829 -0.5
1.4819068 2.5849829 -0.40000001
1.4819068 2.5849829 -0.30000001
1.4819068 2.5849829 -0.2
1.4819068 2.5849829 -0.1
1.4819068 2.5849829 -2.7755576e-17
1.4819068 2.5849829 0.1
1.4819068 2.5849829 0.2
1.4819068 2.5849829 0.30000001
1.4819068 2.5849829 0.40000001
1.4819068 2.5849829 0.5
1.4819068 2.5849829 0.60000002
1.4819068 2.5849829 0.69999999
1.4819068 2.5849829 0.80000001
1.4819068 2.5849829 0.89999998
1.4819068 2.5849829 1
1.4819068 2.5849829 1.1
1.4819068 2.5849829 1.2
1.4819068 2.5849829 1.3
1.4819068 2.5849829 1.4
1.4819068 2.5849829 1.5
1.4819068 2.5849829 1.6
1.4819068 2.5849829 1.7
1.4819068 2.5849829 1.8
1.4819068 2.5849829 1.9
1.4819068 2.5849829 2
1.4819068 2.5849829 2.0999999
1.4819068 2.5849829 2.2
1.4819068 2.5849829 2.3
1.4819068 2.5849829 2.4000001
1.4819068 2.5849829 2.5
1.4819068 2.5849829 2.5999999
1.4819068 2.5849829 2.7
1.4819068 2.5849829 2.8
1.4819068 2.5849829 2.9000001
1.4819068 2.5849829 3
1.4819068 2.5849829 3.0999999
1.4819068 2.5849829 3.2
1.4819068 2.5849829 3.3
1.4819068 2.5849829 3.4000001
1.5199282 2.6774726 -0.5
1.5199282 2.6774726 -0.40000001
1.5199282 2.6774726 -0.30000001
1.5199282 2.6774726 -0.2
1.5199282 2.6774726 -0.1
1.5199282 2.6774726 -2.7755576e-17
1.5199282 2.6774726 0.1
1.5199282 2.6774726 0.2
1.5199282 2.6774726 0.30000001
1.5199282 2.6774726 0.40000001
1.5199282 2.6774726 0.5
1.5199282 2.6774726 0.60000002
1.5199282 2.6774726 0.69999999
1.5199282 2.6774726 0.80000001
1.5199282 2.6774726 0.89999998
1.5199282 2.6774726 1
1.5199282 2.6774726 1.1
1.5199282 2.6774726 1.2
1.5199282 2.6774726 1.3
1.5199282 2.6774726 1.4
1.5199282 2.6774726 1.5
1.5199282 2.6774726 1.6
1.5199282 2.6774726 1.7
1.5199282 2.6774726 1.8
1.5199282 2.6774726 1.9
1.5199282 2.6774726 2
1.5199282 2.6774726 2.0999999
1.5199282 2.6774726 2.2
1.5199282 2.6774726 2.3
1.5199282 2.6774726 2.4000001
1.5199282 2.6774726 2.5
1.5199282 2.6774726 2.5999999
1.5199282 2.6774726 2.7
1.5199282 2.6774726 2.8
1.5199282 2.6774726 2.9000001
1.5199282 2.6774726 3
1.5199282 2.6774726 3.0999999
1.5199282 2.6774726 3.2
1.5199282 2.6774726 3.3
1.5199282 2.6774726 3.4000001
1.4983537 2.3619816 -0.5
1.4983537 2.3619816 -0.40000001
1.4983537 2.3619816 -0.30000001
1.4983537 2.3619816 -0.2
1.4983537 2.3619816 -0.1
1.4983537 2.3619816 -2.7755576e-17
1.4983537 2.3619816 0.1
1.4983537 2.3619816 0.2
1.4983537 2.3619816 0.30000001
1.4983537 2.3619816 0.40000001
1.4983537 2.3619816 0.5
1.4983537 2.3619816 0.60000002
1.4983537 2.3619816 0.69999999
1.4983537 2.3619816 0.80000001
1.4983537 2.3619816 0.89999998
1.4983537 2.3619816 1
1.4983537 2.3619816 1.1
1.4983537 2.3619816 1.2
1.4983537 2.3619816 1.3
1.4983537 2.3619816 1.4
1.4983537 2.3619816 1.5
1.4983537 2.3619816 1.6
1.4983537 2.3619816 1.7
1.4983537 2.3619816 1.8
1.4983537 2.3619816 1.9
1.4983537 2.3619816 2
1.4983537 2.3619816 2.0999999
1.4983537 2.3619816 2.2
1.4983537 2.3619816 2.3
1.4983537 2.3619816 2.4000001
1.4983537 2.3619816 2.5
1.4983537 2.3619816 2.5999999
1.4983537 2.3619816 2.7
1.4983537 2.3619816 2.8
1.4983537 2.3619816 2.9000001
1.4983537 2.3619816 3
1.4983537 2.3619816 3.0999999
1.4983537 2.3619816 3.2
1.4983537 2.3619816 3.3
1.4983537 2.3619816 3.4000001
1.5363752 2.4544716 -0.5
1.5363752 2.4544716 -0.40000001
1.5363752 2.4544716 -0.30000001
1.5363752 2.4544716 -0.2
1.5363752 2.4544716 -0.1
1.5363752 2.4544716 -2.7755576e-17
1.5363752 2.4544716 0.1
1.5363752 2.4544716 0.2
1.5363752 2.4544716 0.30000001
1.5363752 2.4544716 0.40000001
1.5363752 2.4544716 0.5
1.5363752 2.4544716 0.60000002
1.5363752 2.4544716 0.69999999
1.5363752 2.4544716 0.80000001
1.5363752 2.4544716 0.89999998
1.5363752 2.4544716 1
1.5363752 2.4544716 1.1
1.5363752 2.4544716 1.2
1.5363752 2.4544716 1.3
1.5363752 2.4544716 1.4
1.5363752 2.4544716 1.5
1.5363752 2.4544716 1.6
1.5363752 2.4544716 1.7
1.5363752 2.4544716 1.8
1.5363752 2.4544716 1.9
1.5363752 2.4544716 2
1.5363752 2.4544716 2.0999999
1.5363752 2.4544716 2.2
1.5363752 2.4544716 2.3
1.5363752 2.4544716 2.4000001
1.5363752 2.4544716 2.5
1.5363752 2.4544716 2.5999999
1.5363752 2.4544716 2.7
1.5363752 2.4544716 2.8
1.5363752 2.4544716 2.9000001
1.5363752 2.4544716 3
1.5363752 2.4544716 3.0999999
1.5363752 2.4544716 3.2
1.5363752 2.4544716 3.3
1.5363752 2.4544716 3.4000001
1.5743966 2.5469613 -0.5
1.5743966 2.5469613 -0.40000001
1.5743966 2.5469613 -0.30000001
1.5743966 2.5469613 -0.2
1.5743966 2.5469613 -0.1
1.5743966 2.5469613 -2.7755576e-17
1.5743966 2.5469613 0.1
1.5743966 2.5469613 0.2
1.5743966 2.5469613 0.30000001
1.5743966 2.5469613 0.40000001
1.5743966 2.5469613 0.5
1.5743966 2.5469613 0.60000002
1.5743966 2.5469613 0.69999999
1.5743966 2.5469613 0.80000001
1.5743966 2.5469613 0.89999998
1.5743966 2.5469613 1
1.5743966 2.5469613 1.1
1.5743966 2.5469613 1.2
1.5743966 2.5469613 1.3
1.5743966 2.5469613 1.4
1.5743966 2.5469613 1.5
1.5743966 2.5469613 1.6
1.5743966 2.5469613 1.7
1.5743966 2.5469613 1.8
1.5743966 2.5469613 1.9
1.5743966 2.5469613 2
1.5743966 2.5469613 2.0999999
1.5743966 2.5469613 2.2
1.5743966 2.5469613 2.3
1.5743966 2.5469613 2.4000001
1.5743966 2.5469613 2.5
1.5743966 2.5469613 2.5999999
1.5743966 2.5469613 2.7
1.5743966 2.5469613 2.8
1.5743966 2.5469613 2.9000001
1.5743966 2.5469613 3
1.5743966 2.5469613 3.0999999
1.5743966 2.5469613 3.2
1.5743966 2.5469613 3.3
1.5743966 2.5469613 3.4000001
1.6124181 2.6394513 -0.5
1.6124181 2.6394513 -0.40000001
1.6124181 2.6394513 -0.30000001
1.6124181 2.6394513 -0.2
1.6124181 2.6394513 -0.1
1.6124181 2.6394513 -2.7755576e-17
1.6124181 2.6394513 0.1
1.6124181 2.6394513 0.2
1.6124181 2.6394513 0.30000001
1.6124181 2.6394513 0.40000001
1.6124181 2.6394513 0.5
1.6124181 2.6394513 0.60000002
1.6124181 2.6394513 0.69999999
1.6124181 2.6394513 0.80000001
1.6124181 2.6394513 0.89999998
1.6124181 2.6394513 1
1.6124181 2.6394513 1.1
1.6124181 2.6394513 1.2
1.6124181 2.6394513 1.3
1.6124181 2.6394513 1.4
1.6124181 2.6394513 1.5
1.6124181 2.6394513 1.6
1.6124181 2.6394513 1.7
1.6124181 2.6394513 1.8
1.6124181 2.6394513 1.9
1.6124181 2.6394513 2
1.6124181 2.6394513 2.0999999
1.6124181 2.6394513 2.2
1.6124181 2.6394513 2.3
1.6124181 2.6394513 2.4000001
1.6124181 2.6394513 2.5
1.6124181 2.6394513 2.5999999
1.6124181 2.6394513 2.7
1.6124181 2.6394513 2.8
1.6124181 2.6394513 2.9000001
1.6124181 2.6394513 3
1.6124181 2.6394513 3.0999999
1.6124181 2.6394513 3.2
1.6124181 2.6394513 3.3
1.6124181 2.6394513 3.4000001
1.5908436 2.3239603 -0.5
1.5908436 2.3239603 -0.40000001
1.5908436 2.3239603 -0.30000001
1.5908436 2.3239603 -0.2
1.5908436 2.3239603 -0.1
1.5908436 2.3239603 -2.7755576e-17
1.5908436 2.3239603 0.1
1.5908436 2.3239603 0.2
1.5908436 2.3239603 0.30000001
1.5908436 2.3239603 0.40000001
1.5908436 2.3239603 0.5
1.5908436 2.3239603 0.60000002
1.5908436 2.3239603 0.69999999
1.5908436 2.3239603 0.80000001
1.5908436 2.3239603 0.89999998
1.5908436 2.3239603 1
1.5908436 2.3239603 1.1
1.5908436 2.3239603 1.2
1.5908436 2.3239603 1.3
1.5908436 2.3239603 1.4
1.5908436 2.3239603 1.5
1.5908436 2.3239603 1.6
1.5908436 2.3239603 1.7
1.5908436 2.3239603 1.8
1.5908436 2.3239603 1.9
1.5908436 2.3239603 2
1.5908436 2.3239603 2.0999999
1.5908436 2.3239603 2.2
